0.000000000000000000e+00 0.000000000000000000e+00 0.000000000000000000e+00 0.000000000000000000e+00 0.000000000000000000e+00 0.000000000000000000e+00 0.000000000000000000e+00 0.000000000000000000e+00 0.000000000000000000e+00 0.000000000000000000e+00 0.000000000000000000e+00 0.000000000000000000e+00 0.000000000000000000e+00 0.000000000000000000e+00 0.000000000000000000e+00 0.000000000000000000e+00 0.000000000000000000e+00 0.000000000000000000e+00 0.000000000000000000e+00 0.000000000000000000e+00 0.000000000000000000e+00 0.000000000000000000e+00 0.000000000000000000e+00 0.000000000000000000e+00 0.000000000000000000e+00 0.000000000000000000e+00 0.000000000000000000e+00 0.000000000000000000e+00 0.000000000000000000e+00 0.000000000000000000e+00 0.000000000000000000e+00 0.000000000000000000e+00 0.000000000000000000e+00 0.000000000000000000e+00 0.000000000000000000e+00 0.000000000000000000e+00 0.000000000000000000e+00 0.000000000000000000e+00 0.000000000000000000e+00 0.000000000000000000e+00 0.000000000000000000e+00 0.000000000000000000e+00 0.000000000000000000e+00 0.000000000000000000e+00 0.000000000000000000e+00 0.000000000000000000e+00 0.000000000000000000e+00 0.000000000000000000e+00 0.000000000000000000e+00 0.000000000000000000e+00 1.174487400054931641e+01 7.387933349609375000e+01 8.235742950439453125e+01 7.402027893066406250e+01 7.601468658447265625e+01 7.191577148437500000e+01 7.644821166992187500e+01 8.181270599365234375e+01 8.811367797851562500e+01 9.629374694824218750e+01 7.078430175781250000e+01 6.866848754882812500e+01 2.531586456298828125e+01 5.820201110839843750e+01 8.071129608154296875e+01 7.668933105468750000e+01 4.687763977050781250e+01 5.716296386718750000e+01 7.009225463867187500e+01 9.139479064941406250e+01 2.155915260314941406e+01 2.724268722534179688e+01 4.876250457763671875e+01 5.582450866699218750e+01 1.354467773437500000e+01 5.826886367797851562e+01 4.085316467285156250e+01 8.476812744140625000e+01 1.060132141113281250e+02 1.186369781494140625e+02 1.213368988037109375e+02 1.284016723632812500e+02 1.264962463378906250e+02 1.338114318847656250e+02 1.287599639892578125e+02 1.352515869140625000e+02 1.321928405761718750e+02 1.242021179199218750e+02 1.192849273681640625e+02 1.132033691406250000e+02 1.110469131469726562e+02 1.065798034667968750e+02 9.827317047119140625e+01 8.502100372314453125e+01 7.360041046142578125e+01 6.493316650390625000e+01 3.989265060424804688e+01 5.730532646179199219e+00 0.000000000000000000e+00 0.000000000000000000e+00 0.000000000000000000e+00 0.000000000000000000e+00 0.000000000000000000e+00 0.000000000000000000e+00 0.000000000000000000e+00 0.000000000000000000e+00 0.000000000000000000e+00 0.000000000000000000e+00 0.000000000000000000e+00 0.000000000000000000e+00 0.000000000000000000e+00 0.000000000000000000e+00 0.000000000000000000e+00 0.000000000000000000e+00 0.000000000000000000e+00 0.000000000000000000e+00 0.000000000000000000e+00 0.000000000000000000e+00 0.000000000000000000e+00
0.000000000000000000e+00 0.000000000000000000e+00 0.000000000000000000e+00 0.000000000000000000e+00 0.000000000000000000e+00 0.000000000000000000e+00 0.000000000000000000e+00 0.000000000000000000e+00 0.000000000000000000e+00 0.000000000000000000e+00 0.000000000000000000e+00 0.000000000000000000e+00 0.000000000000000000e+00 0.000000000000000000e+00 0.000000000000000000e+00 0.000000000000000000e+00 0.000000000000000000e+00 0.000000000000000000e+00 0.000000000000000000e+00 0.000000000000000000e+00 0.000000000000000000e+00 0.000000000000000000e+00 0.000000000000000000e+00 0.000000000000000000e+00 0.000000000000000000e+00 0.000000000000000000e+00 0.000000000000000000e+00 0.000000000000000000e+00 0.000000000000000000e+00 0.000000000000000000e+00 0.000000000000000000e+00 0.000000000000000000e+00 0.000000000000000000e+00 0.000000000000000000e+00 0.000000000000000000e+00 0.000000000000000000e+00 0.000000000000000000e+00 0.000000000000000000e+00 0.000000000000000000e+00 0.000000000000000000e+00 0.000000000000000000e+00 0.000000000000000000e+00 0.000000000000000000e+00 0.000000000000000000e+00 0.000000000000000000e+00 0.000000000000000000e+00 0.000000000000000000e+00 0.000000000000000000e+00 0.000000000000000000e+00 8.482711315155029297e-01 5.750865459442138672e+00 6.671704101562500000e+01 8.144076538085937500e+01 8.387179565429687500e+01 7.911728668212890625e+01 7.658692932128906250e+01 7.837511444091796875e+01 8.531391906738281250e+01 9.254099273681640625e+01 9.760198974609375000e+01 5.545756530761718750e+01 6.352725982666015625e+01 5.621033859252929688e+01 3.902036285400390625e+01 7.739334106445312500e+01 8.236275482177734375e+01 6.154713058471679688e+01 8.239322662353515625e+01 8.006423950195312500e+01 8.930355834960937500e+01 3.070350646972656250e+01 5.508363723754882812e+01 7.559886169433593750e+01 8.097637176513671875e+01 2.534521484375000000e+01 8.768038177490234375e+01 9.056074523925781250e+01 9.793856048583984375e+01 1.046261367797851562e+02 1.149575500488281250e+02 1.300485534667968750e+02 1.350003356933593750e+02 1.331876220703125000e+02 1.335898895263671875e+02 1.320535736083984375e+02 1.389167480468750000e+02 1.378236236572265625e+02 1.310729522705078125e+02 1.233562316894531250e+02 1.153278808593750000e+02 1.046973648071289062e+02 9.475595092773437500e+01 8.955777740478515625e+01 7.884725952148437500e+01 6.570401000976562500e+01 5.196675872802734375e+01 2.539863395690917969e+01 0.000000000000000000e+00 0.000000000000000000e+00 0.000000000000000000e+00 0.000000000000000000e+00 0.000000000000000000e+00 0.000000000000000000e+00 0.000000000000000000e+00 0.000000000000000000e+00 0.000000000000000000e+00 0.000000000000000000e+00 0.000000000000000000e+00 0.000000000000000000e+00 0.000000000000000000e+00 0.000000000000000000e+00 0.000000000000000000e+00 0.000000000000000000e+00 0.000000000000000000e+00 0.000000000000000000e+00 0.000000000000000000e+00 0.000000000000000000e+00 0.000000000000000000e+00 0.000000000000000000e+00
0.000000000000000000e+00 0.000000000000000000e+00 0.000000000000000000e+00 0.000000000000000000e+00 0.000000000000000000e+00 0.000000000000000000e+00 0.000000000000000000e+00 0.000000000000000000e+00 0.000000000000000000e+00 0.000000000000000000e+00 0.000000000000000000e+00 0.000000000000000000e+00 0.000000000000000000e+00 0.000000000000000000e+00 0.000000000000000000e+00 0.000000000000000000e+00 0.000000000000000000e+00 0.000000000000000000e+00 0.000000000000000000e+00 0.000000000000000000e+00 0.000000000000000000e+00 0.000000000000000000e+00 0.000000000000000000e+00 0.000000000000000000e+00 0.000000000000000000e+00 0.000000000000000000e+00 0.000000000000000000e+00 0.000000000000000000e+00 0.000000000000000000e+00 0.000000000000000000e+00 0.000000000000000000e+00 0.000000000000000000e+00 0.000000000000000000e+00 0.000000000000000000e+00 0.000000000000000000e+00 0.000000000000000000e+00 0.000000000000000000e+00 0.000000000000000000e+00 0.000000000000000000e+00 0.000000000000000000e+00 0.000000000000000000e+00 0.000000000000000000e+00 0.000000000000000000e+00 0.000000000000000000e+00 0.000000000000000000e+00 0.000000000000000000e+00 0.000000000000000000e+00 0.000000000000000000e+00 1.585895824432373047e+01 1.513624858856201172e+01 4.965882873535156250e+01 3.264081954956054688e+01 2.719202232360839844e+01 7.672592163085937500e+01 8.185459899902343750e+01 8.753948974609375000e+01 9.344013977050781250e+01 1.022160568237304688e+02 9.925258636474609375e+01 7.798336791992187500e+01 8.318714904785156250e+01 8.657022094726562500e+01 8.518212127685546875e+01 6.357978820800781250e+01 3.461478805541992188e+01 4.780220031738281250e+01 8.538996887207031250e+01 8.602371215820312500e+01 9.892537689208984375e+01 9.511351776123046875e+01 6.862725830078125000e+01 5.670597839355468750e+01 6.987808227539062500e+01 9.210988616943359375e+01 3.029388618469238281e+01 8.087327575683593750e+01 7.700951385498046875e+01 9.675204467773437500e+01 1.017526702880859375e+02 1.181549606323242188e+02 1.241017761230468750e+02 1.218714752197265625e+02 1.278572387695312500e+02 1.338350830078125000e+02 1.375021362304687500e+02 1.307154235839843750e+02 1.345557861328125000e+02 1.385542755126953125e+02 1.370137176513671875e+02 1.291210784912109375e+02 1.154231796264648438e+02 8.934807586669921875e+01 7.265510559082031250e+01 6.811579132080078125e+01 3.917485809326171875e+01 2.966424560546875000e+01 1.880083656311035156e+01 0.000000000000000000e+00 0.000000000000000000e+00 0.000000000000000000e+00 0.000000000000000000e+00 0.000000000000000000e+00 0.000000000000000000e+00 0.000000000000000000e+00 0.000000000000000000e+00 0.000000000000000000e+00 0.000000000000000000e+00 0.000000000000000000e+00 0.000000000000000000e+00 0.000000000000000000e+00 0.000000000000000000e+00 0.000000000000000000e+00 0.000000000000000000e+00 0.000000000000000000e+00 0.000000000000000000e+00 0.000000000000000000e+00 0.000000000000000000e+00 0.000000000000000000e+00 0.000000000000000000e+00
0.000000000000000000e+00 0.000000000000000000e+00 0.000000000000000000e+00 0.000000000000000000e+00 0.000000000000000000e+00 0.000000000000000000e+00 0.000000000000000000e+00 0.000000000000000000e+00 0.000000000000000000e+00 0.000000000000000000e+00 0.000000000000000000e+00 0.000000000000000000e+00 0.000000000000000000e+00 0.000000000000000000e+00 0.000000000000000000e+00 0.000000000000000000e+00 0.000000000000000000e+00 0.000000000000000000e+00 0.000000000000000000e+00 0.000000000000000000e+00 0.000000000000000000e+00 0.000000000000000000e+00 0.000000000000000000e+00 0.000000000000000000e+00 0.000000000000000000e+00 0.000000000000000000e+00 0.000000000000000000e+00 0.000000000000000000e+00 0.000000000000000000e+00 0.000000000000000000e+00 0.000000000000000000e+00 0.000000000000000000e+00 0.000000000000000000e+00 0.000000000000000000e+00 0.000000000000000000e+00 0.000000000000000000e+00 0.000000000000000000e+00 0.000000000000000000e+00 0.000000000000000000e+00 0.000000000000000000e+00 0.000000000000000000e+00 0.000000000000000000e+00 0.000000000000000000e+00 0.000000000000000000e+00 0.000000000000000000e+00 0.000000000000000000e+00 1.868320274353027344e+01 6.777975463867187500e+01 6.010628509521484375e+01 2.465752792358398438e+01 5.824182128906250000e+01 8.040747833251953125e+01 6.735011291503906250e+01 3.322060394287109375e+01 3.584218597412109375e+01 5.407055664062500000e+01 7.660812377929687500e+01 9.088919830322265625e+01 9.013705444335937500e+01 9.003435516357421875e+01 8.290176391601562500e+01 9.259040069580078125e+01 9.346914672851562500e+01 8.474613952636718750e+01 8.854742431640625000e+01 7.568679046630859375e+01 4.625891494750976562e+01 9.199684143066406250e+01 9.759677886962890625e+01 8.931819152832031250e+01 7.112149810791015625e+01 7.683065032958984375e+01 9.732991027832031250e+01 9.344066619873046875e+01 1.008447189331054688e+02 5.047040557861328125e+01 1.014941406250000000e+02 1.098771057128906250e+02 1.212743988037109375e+02 1.130296020507812500e+02 1.126186523437500000e+02 1.147634124755859375e+02 1.215166854858398438e+02 1.266010513305664062e+02 1.292343444824218750e+02 1.288997802734375000e+02 1.223367996215820312e+02 1.289036865234375000e+02 1.279876251220703125e+02 1.261786041259765625e+02 1.129892272949218750e+02 9.155886840820312500e+01 7.648770141601562500e+01 6.134350585937500000e+01 3.776846694946289062e+01 2.782176399230957031e+01 1.344010543823242188e+01 0.000000000000000000e+00 0.000000000000000000e+00 0.000000000000000000e+00 0.000000000000000000e+00 0.000000000000000000e+00 0.000000000000000000e+00 0.000000000000000000e+00 0.000000000000000000e+00 0.000000000000000000e+00 0.000000000000000000e+00 0.000000000000000000e+00 0.000000000000000000e+00 0.000000000000000000e+00 0.000000000000000000e+00 0.000000000000000000e+00 0.000000000000000000e+00 0.000000000000000000e+00 0.000000000000000000e+00 0.000000000000000000e+00 0.000000000000000000e+00 0.000000000000000000e+00 0.000000000000000000e+00
0.000000000000000000e+00 0.000000000000000000e+00 0.000000000000000000e+00 0.000000000000000000e+00 0.000000000000000000e+00 0.000000000000000000e+00 0.000000000000000000e+00 0.000000000000000000e+00 0.000000000000000000e+00 0.000000000000000000e+00 0.000000000000000000e+00 0.000000000000000000e+00 0.000000000000000000e+00 0.000000000000000000e+00 0.000000000000000000e+00 0.000000000000000000e+00 0.000000000000000000e+00 0.000000000000000000e+00 0.000000000000000000e+00 0.000000000000000000e+00 0.000000000000000000e+00 0.000000000000000000e+00 0.000000000000000000e+00 0.000000000000000000e+00 0.000000000000000000e+00 0.000000000000000000e+00 0.000000000000000000e+00 0.000000000000000000e+00 0.000000000000000000e+00 0.000000000000000000e+00 0.000000000000000000e+00 0.000000000000000000e+00 0.000000000000000000e+00 0.000000000000000000e+00 0.000000000000000000e+00 0.000000000000000000e+00 0.000000000000000000e+00 0.000000000000000000e+00 0.000000000000000000e+00 0.000000000000000000e+00 0.000000000000000000e+00 0.000000000000000000e+00 0.000000000000000000e+00 0.000000000000000000e+00 0.000000000000000000e+00 2.195837944746017456e-01 5.372422790527343750e+01 7.731750488281250000e+01 4.298701858520507812e+01 2.594738388061523438e+01 5.494595336914062500e+01 8.376472473144531250e+01 8.248046875000000000e+01 4.623347091674804688e+01 7.124951171875000000e+01 4.491450500488281250e+01 4.121538543701171875e+01 7.263606262207031250e+01 8.466870117187500000e+01 9.263233947753906250e+01 9.118121337890625000e+01 9.319810485839843750e+01 9.630294799804687500e+01 8.139378356933593750e+01 9.488909912109375000e+01 8.984274291992187500e+01 7.046214294433593750e+01 7.408563232421875000e+01 1.013272857666015625e+02 9.476459503173828125e+01 9.701567840576171875e+01 7.068089294433593750e+01 8.226544189453125000e+01 9.406999206542968750e+01 1.105965957641601562e+02 5.528057098388671875e+01 8.691631317138671875e+01 1.114845352172851562e+02 1.197685317993164062e+02 1.157147216796875000e+02 1.207148132324218750e+02 1.213633499145507812e+02 1.275809936523437500e+02 1.347373962402343750e+02 1.377165832519531250e+02 1.398889465332031250e+02 1.287761535644531250e+02 1.162008438110351562e+02 1.193269500732421875e+02 1.080962219238281250e+02 9.830374908447265625e+01 8.075643920898437500e+01 6.789067840576171875e+01 5.817918014526367188e+01 3.294575119018554688e+01 2.630965423583984375e+01 1.998276138305664062e+01 0.000000000000000000e+00 0.000000000000000000e+00 0.000000000000000000e+00 0.000000000000000000e+00 0.000000000000000000e+00 0.000000000000000000e+00 0.000000000000000000e+00 0.000000000000000000e+00 0.000000000000000000e+00 0.000000000000000000e+00 0.000000000000000000e+00 0.000000000000000000e+00 0.000000000000000000e+00 0.000000000000000000e+00 0.000000000000000000e+00 0.000000000000000000e+00 0.000000000000000000e+00 0.000000000000000000e+00 0.000000000000000000e+00 0.000000000000000000e+00 0.000000000000000000e+00 0.000000000000000000e+00
0.000000000000000000e+00 0.000000000000000000e+00 0.000000000000000000e+00 0.000000000000000000e+00 0.000000000000000000e+00 0.000000000000000000e+00 0.000000000000000000e+00 0.000000000000000000e+00 0.000000000000000000e+00 0.000000000000000000e+00 1.747726559638977051e+00 0.000000000000000000e+00 0.000000000000000000e+00 2.275199890136718750e+00 1.727884101867675781e+01 1.603002357482910156e+01 1.469363975524902344e+01 9.602847099304199219e+00 6.247236728668212891e+00 6.708736419677734375e-01 0.000000000000000000e+00 0.000000000000000000e+00 0.000000000000000000e+00 0.000000000000000000e+00 0.000000000000000000e+00 0.000000000000000000e+00 0.000000000000000000e+00 0.000000000000000000e+00 0.000000000000000000e+00 0.000000000000000000e+00 0.000000000000000000e+00 0.000000000000000000e+00 0.000000000000000000e+00 0.000000000000000000e+00 0.000000000000000000e+00 0.000000000000000000e+00 0.000000000000000000e+00 0.000000000000000000e+00 0.000000000000000000e+00 0.000000000000000000e+00 0.000000000000000000e+00 0.000000000000000000e+00 0.000000000000000000e+00 7.058585435152053833e-02 8.043475151062011719e+00 3.853749465942382812e+01 8.349903869628906250e+01 7.655767059326171875e+01 3.423322677612304688e+01 3.481328964233398438e+01 7.966924285888671875e+01 8.389790344238281250e+01 8.382272338867187500e+01 4.852134704589843750e+01 8.105854034423828125e+01 9.135969543457031250e+01 9.193548583984375000e+01 6.754911804199218750e+01 6.307637023925781250e+01 8.137221527099609375e+01 9.916463470458984375e+01 1.017470550537109375e+02 1.013232574462890625e+02 1.008049621582031250e+02 1.061333847045898438e+02 1.105959625244140625e+02 1.047945098876953125e+02 5.568395233154296875e+01 8.744924163818359375e+01 1.217077102661132812e+02 1.226192474365234375e+02 9.486380004882812500e+01 8.924683380126953125e+01 1.127985382080078125e+02 1.082944869995117188e+02 1.180749206542968750e+02 1.043289871215820312e+02 7.865509796142578125e+01 1.161796188354492188e+02 1.228917770385742188e+02 1.243894805908203125e+02 1.325416259765625000e+02 1.377722167968750000e+02 1.401977386474609375e+02 1.419256744384765625e+02 1.387268066406250000e+02 1.380043487548828125e+02 1.244641876220703125e+02 1.194271392822265625e+02 1.152157363891601562e+02 1.185960006713867188e+02 1.002981414794921875e+02 9.264002990722656250e+01 8.378275299072265625e+01 5.352445602416992188e+01 2.573471832275390625e+01 1.926915740966796875e+01 1.214649438858032227e+00 0.000000000000000000e+00 0.000000000000000000e+00 0.000000000000000000e+00 0.000000000000000000e+00 0.000000000000000000e+00 0.000000000000000000e+00 0.000000000000000000e+00 0.000000000000000000e+00 0.000000000000000000e+00 0.000000000000000000e+00 0.000000000000000000e+00 0.000000000000000000e+00 0.000000000000000000e+00 0.000000000000000000e+00 0.000000000000000000e+00 0.000000000000000000e+00 0.000000000000000000e+00 0.000000000000000000e+00 0.000000000000000000e+00 0.000000000000000000e+00 0.000000000000000000e+00
0.000000000000000000e+00 0.000000000000000000e+00 0.000000000000000000e+00 0.000000000000000000e+00 0.000000000000000000e+00 0.000000000000000000e+00 0.000000000000000000e+00 0.000000000000000000e+00 0.000000000000000000e+00 1.459753513336181641e-01 1.417038917541503906e+01 1.744716286659240723e+00 1.941481971740722656e+01 2.955968093872070312e+01 4.093292617797851562e+01 3.911957550048828125e+01 3.278644561767578125e+01 2.472763252258300781e+01 1.908815956115722656e+01 1.355073165893554688e+01 7.649912834167480469e-01 0.000000000000000000e+00 0.000000000000000000e+00 0.000000000000000000e+00 0.000000000000000000e+00 0.000000000000000000e+00 0.000000000000000000e+00 0.000000000000000000e+00 0.000000000000000000e+00 0.000000000000000000e+00 0.000000000000000000e+00 0.000000000000000000e+00 0.000000000000000000e+00 0.000000000000000000e+00 0.000000000000000000e+00 0.000000000000000000e+00 0.000000000000000000e+00 0.000000000000000000e+00 0.000000000000000000e+00 0.000000000000000000e+00 1.460208296775817871e-01 1.465239882469177246e+00 2.045460700988769531e+00 9.331871032714843750e+00 3.835348129272460938e+01 7.716460418701171875e+01 8.697997283935546875e+01 8.525360107421875000e+01 4.035786437988281250e+01 3.446863174438476562e+01 7.451425170898437500e+01 8.396385192871093750e+01 8.859580230712890625e+01 6.726985931396484375e+01 5.130876922607421875e+01 9.127249908447265625e+01 9.720525360107421875e+01 9.578165435791015625e+01 5.194577407836914062e+01 8.937141418457031250e+01 9.671208190917968750e+01 1.061814117431640625e+02 1.060985260009765625e+02 1.024901123046875000e+02 1.124825897216796875e+02 1.178948135375976562e+02 1.144170150756835938e+02 1.016542434692382812e+02 5.882682037353515625e+01 1.171675720214843750e+02 1.204143981933593750e+02 9.246427154541015625e+01 9.283220672607421875e+01 1.128819732666015625e+02 1.149983291625976562e+02 1.086124801635742188e+02 1.153188018798828125e+02 7.383391571044921875e+01 1.235864181518554688e+02 1.345440216064453125e+02 1.364264678955078125e+02 1.368798217773437500e+02 1.417813110351562500e+02 1.347812500000000000e+02 1.234645767211914062e+02 1.330773773193359375e+02 1.250520401000976562e+02 1.249800415039062500e+02 1.178099975585937500e+02 1.111368713378906250e+02 1.249657135009765625e+02 1.108353805541992188e+02 1.026668548583984375e+02 8.791432189941406250e+01 5.951125335693359375e+01 3.028390312194824219e+01 1.305044078826904297e+01 1.626959919929504395e+00 0.000000000000000000e+00 0.000000000000000000e+00 0.000000000000000000e+00 0.000000000000000000e+00 0.000000000000000000e+00 0.000000000000000000e+00 0.000000000000000000e+00 0.000000000000000000e+00 0.000000000000000000e+00 0.000000000000000000e+00 0.000000000000000000e+00 0.000000000000000000e+00 0.000000000000000000e+00 0.000000000000000000e+00 0.000000000000000000e+00 0.000000000000000000e+00 0.000000000000000000e+00 0.000000000000000000e+00 0.000000000000000000e+00 0.000000000000000000e+00 0.000000000000000000e+00
0.000000000000000000e+00 0.000000000000000000e+00 0.000000000000000000e+00 0.000000000000000000e+00 0.000000000000000000e+00 0.000000000000000000e+00 0.000000000000000000e+00 0.000000000000000000e+00 0.000000000000000000e+00 3.480070829391479492e+00 2.813919258117675781e+01 6.782505035400390625e+01 5.793705749511718750e+01 8.922679138183593750e+01 9.839422607421875000e+01 8.878404235839843750e+01 7.740786743164062500e+01 6.550420379638671875e+01 4.443954086303710938e+01 3.166093063354492188e+01 2.753508186340332031e+01 2.114639282226562500e+01 1.429068660736083984e+01 0.000000000000000000e+00 0.000000000000000000e+00 3.038293421268463135e-01 2.199544906616210938e+00 0.000000000000000000e+00 0.000000000000000000e+00 0.000000000000000000e+00 0.000000000000000000e+00 0.000000000000000000e+00 3.149357557296752930e+00 1.262486457824707031e+01 2.849946594238281250e+01 2.551471328735351562e+01 2.268058586120605469e+01 9.197218716144561768e-02 0.000000000000000000e+00 4.263088226318359375e+00 3.196344757080078125e+01 5.905470657348632812e+01 8.203658294677734375e+01 9.590750122070312500e+01 9.692006683349609375e+01 1.055215606689453125e+02 1.051143417358398438e+02 8.237338256835937500e+01 4.243797302246093750e+01 3.527360153198242188e+01 8.161186218261718750e+01 9.224102783203125000e+01 1.042358245849609375e+02 8.575056457519531250e+01 8.098228454589843750e+01 5.089166641235351562e+01 7.847249603271484375e+01 1.005133514404296875e+02 1.003738555908203125e+02 6.179210662841796875e+01 1.038474731445312500e+02 1.109647674560546875e+02 1.164609146118164062e+02 1.218569488525390625e+02 1.272878723144531250e+02 1.294810485839843750e+02 1.347795410156250000e+02 1.374168243408203125e+02 1.004777832031250000e+02 7.585133361816406250e+01 1.276191101074218750e+02 1.172288208007812500e+02 9.108989715576171875e+01 1.361125183105468750e+02 1.412985534667968750e+02 1.356646575927734375e+02 1.326818542480468750e+02 8.982682037353515625e+01 9.518119049072265625e+01 1.129392089843750000e+02 1.327402038574218750e+02 1.235068054199218750e+02 1.169611053466796875e+02 1.232372589111328125e+02 9.937349700927734375e+01 9.468964385986328125e+01 1.026246337890625000e+02 9.016619873046875000e+01 9.922918701171875000e+01 1.186717147827148438e+02 1.143915252685546875e+02 1.014159011840820312e+02 8.834489440917968750e+01 6.961999511718750000e+01 5.423361587524414062e+01 3.895582962036132812e+01 1.758653259277343750e+01 1.445654869079589844e+01 0.000000000000000000e+00 0.000000000000000000e+00 0.000000000000000000e+00 0.000000000000000000e+00 0.000000000000000000e+00 0.000000000000000000e+00 0.000000000000000000e+00 0.000000000000000000e+00 0.000000000000000000e+00 0.000000000000000000e+00 0.000000000000000000e+00 0.000000000000000000e+00 0.000000000000000000e+00 0.000000000000000000e+00 0.000000000000000000e+00 0.000000000000000000e+00 0.000000000000000000e+00 0.000000000000000000e+00 0.000000000000000000e+00 0.000000000000000000e+00 0.000000000000000000e+00
0.000000000000000000e+00 0.000000000000000000e+00 0.000000000000000000e+00 0.000000000000000000e+00 0.000000000000000000e+00 0.000000000000000000e+00 0.000000000000000000e+00 0.000000000000000000e+00 8.433704376220703125e+00 3.353003311157226562e+01 5.794244766235351562e+01 1.060754776000976562e+02 1.134182281494140625e+02 1.136668701171875000e+02 1.090968856811523438e+02 1.125007171630859375e+02 1.030635147094726562e+02 9.137440490722656250e+01 7.836382293701171875e+01 7.494703674316406250e+01 7.712142181396484375e+01 8.239497375488281250e+01 5.336937332153320312e+01 3.516217422485351562e+01 2.827799415588378906e+01 2.414376068115234375e+01 2.325261878967285156e+01 1.904068565368652344e+01 1.536855697631835938e+01 4.749410629272460938e+00 1.234675884246826172e+01 1.860695075988769531e+01 2.127253913879394531e+01 1.782225036621093750e+01 2.538739395141601562e+01 3.582498168945312500e+01 5.508510208129882812e+01 3.445706176757812500e+01 3.396881866455078125e+01 3.301548385620117188e+01 8.424912261962890625e+01 6.035949707031250000e+01 8.217485046386718750e+01 1.173537216186523438e+02 1.104506759643554688e+02 1.071187744140625000e+02 1.024798355102539062e+02 9.606640625000000000e+01 4.842140197753906250e+01 5.216825866699218750e+01 4.650432586669921875e+01 8.007623291015625000e+01 1.041144943237304688e+02 9.691699218750000000e+01 9.714088439941406250e+01 9.383258056640625000e+01 6.214239501953125000e+01 1.036503906250000000e+02 1.087815704345703125e+02 7.946260833740234375e+01 7.944454956054687500e+01 1.064162368774414062e+02 1.194365463256835938e+02 1.380227966308593750e+02 1.450737304687500000e+02 1.534346160888671875e+02 1.564210510253906250e+02 1.453210754394531250e+02 8.885627746582031250e+01 6.556041717529296875e+01 9.478275299072265625e+01 1.308922424316406250e+02 1.333333129882812500e+02 1.007134704589843750e+02 1.479518890380859375e+02 1.343933868408203125e+02 1.283869323730468750e+02 9.836732482910156250e+01 1.223746948242187500e+02 1.309173278808593750e+02 1.339376983642578125e+02 1.170700759887695312e+02 1.169857254028320312e+02 1.175781402587890625e+02 1.230168685913085938e+02 9.925850677490234375e+01 8.402119445800781250e+01 8.737930297851562500e+01 6.890422821044921875e+01 9.774982452392578125e+01 9.477355957031250000e+01 7.397055816650390625e+01 5.686398696899414062e+01 4.500864410400390625e+01 2.390390014648437500e+01 1.921602630615234375e+01 2.108870124816894531e+01 1.616276359558105469e+01 0.000000000000000000e+00 0.000000000000000000e+00 0.000000000000000000e+00 0.000000000000000000e+00 0.000000000000000000e+00 0.000000000000000000e+00 0.000000000000000000e+00 0.000000000000000000e+00 0.000000000000000000e+00 0.000000000000000000e+00 0.000000000000000000e+00 0.000000000000000000e+00 0.000000000000000000e+00 0.000000000000000000e+00 0.000000000000000000e+00 0.000000000000000000e+00 0.000000000000000000e+00 0.000000000000000000e+00 0.000000000000000000e+00 0.000000000000000000e+00 0.000000000000000000e+00
0.000000000000000000e+00 0.000000000000000000e+00 0.000000000000000000e+00 0.000000000000000000e+00 0.000000000000000000e+00 0.000000000000000000e+00 0.000000000000000000e+00 4.888327121734619141e+00 1.777336883544921875e+01 5.016517639160156250e+01 8.040696716308593750e+01 1.140922775268554688e+02 1.237810821533203125e+02 1.224157257080078125e+02 1.154419555664062500e+02 1.170576171875000000e+02 1.074808197021484375e+02 1.090094757080078125e+02 1.024160461425781250e+02 1.036751708984375000e+02 1.010937957763671875e+02 1.002621765136718750e+02 8.506477355957031250e+01 7.112498474121093750e+01 4.636785888671875000e+01 5.046681213378906250e+01 3.269449615478515625e+01 2.737823867797851562e+01 2.643167877197265625e+01 1.771366500854492188e+01 2.080427551269531250e+01 2.686890983581542969e+01 2.518596649169921875e+01 2.290011787414550781e+01 3.435333251953125000e+01 3.105311965942382812e+01 7.669607543945312500e+01 5.583130264282226562e+01 4.448340606689453125e+01 3.195612144470214844e+01 6.521343994140625000e+01 8.686480712890625000e+01 8.298262023925781250e+01 1.150198059082031250e+02 1.125679779052734375e+02 1.172447814941406250e+02 1.024934387207031250e+02 9.050064086914062500e+01 5.566842651367187500e+01 7.347206115722656250e+01 4.868373107910156250e+01 5.121067047119140625e+01 8.721532440185546875e+01 1.011536712646484375e+02 1.000435943603515625e+02 9.968339538574218750e+01 6.641522979736328125e+01 8.838045501708984375e+01 1.116617584228515625e+02 1.013621444702148438e+02 6.575788116455078125e+01 9.903056335449218750e+01 1.155111541748046875e+02 1.283729858398437500e+02 1.464899597167968750e+02 1.559280090332031250e+02 1.535826568603515625e+02 1.382433166503906250e+02 7.021734619140625000e+01 8.686912536621093750e+01 9.449252319335937500e+01 1.237047195434570312e+02 1.308531494140625000e+02 1.089029846191406250e+02 1.431417694091796875e+02 1.420804290771484375e+02 1.390261840820312500e+02 1.169615097045898438e+02 1.020352783203125000e+02 1.301682586669921875e+02 1.400336608886718750e+02 1.193528060913085938e+02 1.186360931396484375e+02 1.295116577148437500e+02 1.292653045654296875e+02 8.151236724853515625e+01 1.168750457763671875e+02 1.204093017578125000e+02 8.010350036621093750e+01 7.384680175781250000e+01 7.779499816894531250e+01 5.424781036376953125e+01 4.700479125976562500e+01 2.652307510375976562e+01 4.107171249389648438e+01 2.780400466918945312e+01 2.021492767333984375e+01 1.679152297973632812e+01 0.000000000000000000e+00 0.000000000000000000e+00 0.000000000000000000e+00 0.000000000000000000e+00 0.000000000000000000e+00 0.000000000000000000e+00 0.000000000000000000e+00 0.000000000000000000e+00 0.000000000000000000e+00 0.000000000000000000e+00 0.000000000000000000e+00 0.000000000000000000e+00 0.000000000000000000e+00 0.000000000000000000e+00 0.000000000000000000e+00 0.000000000000000000e+00 0.000000000000000000e+00 0.000000000000000000e+00 0.000000000000000000e+00 0.000000000000000000e+00 0.000000000000000000e+00
0.000000000000000000e+00 0.000000000000000000e+00 0.000000000000000000e+00 0.000000000000000000e+00 0.000000000000000000e+00 3.321683883666992188e+00 9.876302719116210938e+00 1.834076690673828125e+01 2.952478790283203125e+01 8.666624450683593750e+01 1.159727630615234375e+02 1.342116241455078125e+02 1.320389709472656250e+02 1.297349243164062500e+02 1.280807189941406250e+02 1.239539337158203125e+02 1.159130630493164062e+02 1.181323928833007812e+02 1.124780273437500000e+02 1.101565475463867188e+02 1.070730133056640625e+02 1.050879592895507812e+02 9.890763854980468750e+01 9.226280212402343750e+01 8.753306579589843750e+01 6.498362731933593750e+01 7.417193603515625000e+01 2.796302223205566406e+01 6.863164520263671875e+01 8.428035736083984375e+01 6.558195495605468750e+01 6.914505004882812500e+01 6.670677947998046875e+01 6.289807891845703125e+01 4.375151062011718750e+01 7.412066650390625000e+01 3.942800140380859375e+01 8.689037322998046875e+01 9.063783264160156250e+01 6.710285949707031250e+01 3.939772033691406250e+01 6.472888946533203125e+01 9.071119689941406250e+01 9.480799865722656250e+01 1.123619918823242188e+02 1.078324966430664062e+02 9.239246368408203125e+01 6.841947937011718750e+01 8.539521789550781250e+01 1.053158340454101562e+02 1.000472412109375000e+02 7.205844116210937500e+01 5.495755767822265625e+01 8.855119323730468750e+01 1.048545227050781250e+02 1.049083862304687500e+02 9.682479858398437500e+01 1.065204315185546875e+02 9.443608856201171875e+01 1.198381423950195312e+02 1.140364379882812500e+02 6.964501190185546875e+01 8.509916687011718750e+01 1.016344528198242188e+02 1.117453002929687500e+02 1.283733367919921875e+02 1.212453460693359375e+02 8.256143188476562500e+01 1.091021270751953125e+02 1.334993438720703125e+02 9.372666931152343750e+01 9.005734252929687500e+01 1.091042785644531250e+02 1.407482910156250000e+02 1.219411315917968750e+02 1.569972686767578125e+02 1.594208831787109375e+02 1.363916931152343750e+02 1.208005981445312500e+02 1.263507156372070312e+02 1.487330932617187500e+02 1.317947540283203125e+02 1.360039367675781250e+02 1.274714965820312500e+02 8.573908996582031250e+01 1.209607696533203125e+02 1.398075561523437500e+02 1.197022247314453125e+02 1.015543060302734375e+02 9.224604034423828125e+01 1.017277069091796875e+02 8.197200012207031250e+01 4.087445449829101562e+01 8.268601226806640625e+01 6.132235717773437500e+01 6.847555541992187500e+01 2.523393821716308594e+01 2.049649047851562500e+01 7.184547781944274902e-01 0.000000000000000000e+00 0.000000000000000000e+00 0.000000000000000000e+00 0.000000000000000000e+00 0.000000000000000000e+00 0.000000000000000000e+00 0.000000000000000000e+00 0.000000000000000000e+00 0.000000000000000000e+00 0.000000000000000000e+00 0.000000000000000000e+00 0.000000000000000000e+00 0.000000000000000000e+00 0.000000000000000000e+00 0.000000000000000000e+00 0.000000000000000000e+00 0.000000000000000000e+00 0.000000000000000000e+00 0.000000000000000000e+00 0.000000000000000000e+00
0.000000000000000000e+00 0.000000000000000000e+00 0.000000000000000000e+00 0.000000000000000000e+00 0.000000000000000000e+00 3.890289366245269775e-02 5.600529670715332031e+00 1.785804748535156250e+01 2.416299629211425781e+01 5.796893310546875000e+01 1.063130950927734375e+02 1.354974365234375000e+02 1.367445068359375000e+02 1.277441864013671875e+02 1.244203186035156250e+02 1.233340988159179688e+02 1.213654327392578125e+02 1.186962203979492188e+02 1.191570129394531250e+02 1.117734756469726562e+02 1.112267227172851562e+02 1.093359298706054688e+02 1.010227508544921875e+02 9.744798278808593750e+01 9.747418212890625000e+01 7.499343872070312500e+01 8.352108001708984375e+01 4.199760437011718750e+01 4.648848724365234375e+01 8.733008575439453125e+01 8.807126617431640625e+01 7.883529663085937500e+01 6.112984085083007812e+01 8.832550048828125000e+01 4.410020446777343750e+01 6.653634643554687500e+01 3.944781112670898438e+01 5.839525985717773438e+01 9.341777801513671875e+01 9.261942291259765625e+01 4.400616073608398438e+01 5.786483001708984375e+01 9.655735015869140625e+01 1.089172210693359375e+02 1.069606399536132812e+02 1.164324340820312500e+02 1.024041137695312500e+02 8.520729064941406250e+01 1.029941253662109375e+02 1.022728500366210938e+02 1.191722793579101562e+02 9.039113616943359375e+01 6.276365661621093750e+01 7.550638580322265625e+01 1.049343185424804688e+02 1.095665817260742188e+02 9.544036865234375000e+01 1.118776626586914062e+02 9.221276855468750000e+01 1.009572296142578125e+02 1.156879577636718750e+02 8.838052368164062500e+01 8.128915405273437500e+01 8.520031738281250000e+01 1.147647705078125000e+02 1.214199142456054688e+02 1.135926666259765625e+02 8.350216674804687500e+01 1.031856079101562500e+02 1.350944366455078125e+02 1.074532470703125000e+02 1.078498840332031250e+02 1.443022460937500000e+02 1.428817596435546875e+02 1.373038024902343750e+02 1.422117462158203125e+02 1.576835174560546875e+02 1.412149353027343750e+02 1.248229370117187500e+02 1.306512756347656250e+02 1.493923797607421875e+02 1.449944152832031250e+02 1.468509521484375000e+02 9.887989807128906250e+01 1.226348876953125000e+02 1.432638702392578125e+02 1.413288421630859375e+02 1.315496826171875000e+02 1.179183425903320312e+02 1.102934341430664062e+02 1.045325241088867188e+02 5.587084960937500000e+01 7.853462219238281250e+01 7.863026428222656250e+01 7.041384887695312500e+01 7.833071899414062500e+01 3.392531204223632812e+01 2.285386276245117188e+01 3.177679300308227539e+00 0.000000000000000000e+00 0.000000000000000000e+00 0.000000000000000000e+00 0.000000000000000000e+00 0.000000000000000000e+00 0.000000000000000000e+00 0.000000000000000000e+00 0.000000000000000000e+00 0.000000000000000000e+00 0.000000000000000000e+00 0.000000000000000000e+00 0.000000000000000000e+00 0.000000000000000000e+00 0.000000000000000000e+00 0.000000000000000000e+00 0.000000000000000000e+00 0.000000000000000000e+00 0.000000000000000000e+00 0.000000000000000000e+00 0.000000000000000000e+00
0.000000000000000000e+00 0.000000000000000000e+00 0.000000000000000000e+00 0.000000000000000000e+00 0.000000000000000000e+00 0.000000000000000000e+00 7.377610802650451660e-01 0.000000000000000000e+00 0.000000000000000000e+00 7.119789123535156250e+00 4.565880584716796875e+01 8.624804687500000000e+01 1.265285797119140625e+02 1.261176147460937500e+02 1.155585937500000000e+02 1.114342575073242188e+02 1.217759628295898438e+02 1.373003234863281250e+02 1.287808837890625000e+02 1.165618972778320312e+02 1.115222473144531250e+02 1.116943740844726562e+02 1.040534515380859375e+02 1.024127807617187500e+02 1.007100677490234375e+02 9.693412017822265625e+01 9.482163238525390625e+01 6.427011108398437500e+01 8.151605224609375000e+01 5.741408157348632812e+01 9.131404876708984375e+01 9.934278106689453125e+01 9.703608703613281250e+01 9.530080413818359375e+01 9.232420349121093750e+01 5.943033218383789062e+01 7.306059265136718750e+01 5.254119873046875000e+01 5.548540115356445312e+01 8.510170745849609375e+01 9.077694702148437500e+01 5.754618453979492188e+01 5.705205154418945312e+01 9.280944824218750000e+01 1.202305374145507812e+02 1.234492950439453125e+02 1.276196594238281250e+02 9.099402618408203125e+01 1.160437088012695312e+02 1.205900039672851562e+02 1.082240829467773438e+02 1.046103668212890625e+02 9.218425750732421875e+01 6.108795547485351562e+01 9.819557952880859375e+01 1.110613708496093750e+02 1.049972381591796875e+02 1.228968276977539062e+02 1.214458923339843750e+02 1.238020629882812500e+02 1.046358795166015625e+02 1.217375946044921875e+02 9.972126770019531250e+01 9.602742767333984375e+01 9.533804321289062500e+01 1.196715698242187500e+02 1.232344818115234375e+02 8.946208953857421875e+01 1.316571807861328125e+02 1.416178131103515625e+02 1.448744964599609375e+02 1.017468261718750000e+02 1.015498657226562500e+02 1.444443969726562500e+02 1.593490753173828125e+02 1.313369445800781250e+02 1.619815979003906250e+02 1.667567138671875000e+02 1.549580383300781250e+02 1.333347015380859375e+02 1.654846496582031250e+02 1.546181640625000000e+02 1.132232360839843750e+02 1.424896392822265625e+02 1.428548583984375000e+02 1.773580322265625000e+02 1.626605224609375000e+02 1.629332275390625000e+02 1.386902923583984375e+02 1.076227188110351562e+02 8.512712097167968750e+01 5.700413131713867188e+01 1.149238586425781250e+02 1.049775238037109375e+02 9.077779388427734375e+01 8.890717315673828125e+01 4.753954315185546875e+01 3.698731613159179688e+01 2.100559997558593750e+01 2.919216632843017578e+00 0.000000000000000000e+00 0.000000000000000000e+00 0.000000000000000000e+00 0.000000000000000000e+00 0.000000000000000000e+00 0.000000000000000000e+00 0.000000000000000000e+00 0.000000000000000000e+00 0.000000000000000000e+00 0.000000000000000000e+00 0.000000000000000000e+00 0.000000000000000000e+00 0.000000000000000000e+00 0.000000000000000000e+00 0.000000000000000000e+00 0.000000000000000000e+00 0.000000000000000000e+00 0.000000000000000000e+00 0.000000000000000000e+00
0.000000000000000000e+00 0.000000000000000000e+00 0.000000000000000000e+00 0.000000000000000000e+00 0.000000000000000000e+00 0.000000000000000000e+00 0.000000000000000000e+00 0.000000000000000000e+00 0.000000000000000000e+00 0.000000000000000000e+00 1.516317749023437500e+01 3.522259902954101562e+01 7.077235412597656250e+01 1.113848037719726562e+02 1.119840927124023438e+02 1.131773300170898438e+02 1.160147247314453125e+02 1.211542510986328125e+02 1.233811874389648438e+02 1.192148437500000000e+02 1.190012817382812500e+02 1.115275802612304688e+02 1.077227783203125000e+02 1.055647964477539062e+02 1.044288787841796875e+02 1.030736846923828125e+02 1.025992126464843750e+02 9.768626403808593750e+01 7.348046875000000000e+01 9.324983215332031250e+01 5.810990142822265625e+01 8.071384429931640625e+01 1.002733383178710938e+02 9.951648712158203125e+01 1.022148590087890625e+02 8.080725097656250000e+01 6.527163696289062500e+01 8.503908538818359375e+01 6.323851776123046875e+01 5.559901428222656250e+01 9.157478332519531250e+01 1.098445129394531250e+02 1.023218078613281250e+02 5.878434753417968750e+01 7.925384521484375000e+01 1.032993621826171875e+02 1.357035522460937500e+02 1.206770324707031250e+02 1.070209426879882812e+02 1.032186203002929688e+02 1.241084976196289062e+02 1.162376251220703125e+02 1.112765808105468750e+02 1.007657470703125000e+02 7.383415222167968750e+01 1.049959716796875000e+02 1.132427368164062500e+02 1.199500732421875000e+02 1.439359436035156250e+02 1.284781494140625000e+02 1.239568939208984375e+02 1.235363006591796875e+02 1.207519760131835938e+02 1.209530029296875000e+02 1.299188232421875000e+02 1.022882461547851562e+02 1.358019104003906250e+02 8.992607116699218750e+01 1.318116607666015625e+02 1.541841430664062500e+02 1.652447052001953125e+02 1.075563507080078125e+02 1.418783569335937500e+02 1.271566390991210938e+02 1.756417083740234375e+02 1.898012084960937500e+02 1.629757385253906250e+02 1.950059051513671875e+02 1.754318237304687500e+02 1.693143615722656250e+02 1.857997283935546875e+02 1.319626159667968750e+02 1.995128326416015625e+02 1.993963470458984375e+02 1.916618347167968750e+02 2.048539123535156250e+02 1.706983642578125000e+02 1.433638610839843750e+02 1.217281341552734375e+02 9.427702331542968750e+01 1.036872558593750000e+02 7.507060241699218750e+01 1.040421218872070312e+02 1.139367599487304688e+02 1.052888336181640625e+02 9.192532348632812500e+01 7.543392944335937500e+01 8.502607727050781250e+01 4.135189819335937500e+01 2.444483947753906250e+01 3.315823554992675781e+00 0.000000000000000000e+00 0.000000000000000000e+00 0.000000000000000000e+00 0.000000000000000000e+00 0.000000000000000000e+00 0.000000000000000000e+00 0.000000000000000000e+00 0.000000000000000000e+00 0.000000000000000000e+00 0.000000000000000000e+00 0.000000000000000000e+00 0.000000000000000000e+00 0.000000000000000000e+00 0.000000000000000000e+00 0.000000000000000000e+00 0.000000000000000000e+00 0.000000000000000000e+00 0.000000000000000000e+00
0.000000000000000000e+00 0.000000000000000000e+00 0.000000000000000000e+00 0.000000000000000000e+00 0.000000000000000000e+00 0.000000000000000000e+00 0.000000000000000000e+00 0.000000000000000000e+00 0.000000000000000000e+00 0.000000000000000000e+00 8.978254318237304688e+00 2.188256835937500000e+01 4.283763504028320312e+01 7.719251251220703125e+01 1.051731567382812500e+02 1.109740905761718750e+02 1.170462036132812500e+02 1.186319580078125000e+02 1.178989791870117188e+02 1.201187286376953125e+02 1.173317794799804688e+02 1.121578216552734375e+02 1.114462356567382812e+02 1.091308288574218750e+02 1.065839920043945312e+02 1.060288391113281250e+02 1.060457687377929688e+02 9.953637695312500000e+01 7.953872680664062500e+01 9.344580841064453125e+01 8.586611175537109375e+01 6.151706314086914062e+01 8.608009338378906250e+01 1.043729476928710938e+02 1.042196350097656250e+02 9.064308929443359375e+01 8.902388000488281250e+01 8.745881652832031250e+01 9.704824829101562500e+01 4.865576934814453125e+01 7.442557525634765625e+01 1.156677322387695312e+02 1.227186279296875000e+02 9.288831329345703125e+01 5.938475036621093750e+01 9.118235015869140625e+01 1.241878662109375000e+02 1.241120300292968750e+02 1.177734451293945312e+02 1.144771194458007812e+02 1.142415771484375000e+02 1.205511932373046875e+02 1.190902709960937500e+02 1.110857543945312500e+02 7.871291351318359375e+01 8.664080047607421875e+01 1.173849945068359375e+02 1.304723052978515625e+02 1.310407714843750000e+02 1.283106536865234375e+02 1.260615386962890625e+02 1.189478759765625000e+02 1.294526977539062500e+02 1.255880355834960938e+02 1.384090881347656250e+02 1.189356231689453125e+02 1.319900360107421875e+02 9.382542419433593750e+01 1.138606948852539062e+02 1.407795257568359375e+02 1.610849761962890625e+02 1.216407623291015625e+02 1.624863128662109375e+02 1.493101348876953125e+02 2.007585449218750000e+02 2.153916625976562500e+02 1.655958404541015625e+02 2.036088562011718750e+02 1.855022888183593750e+02 1.599875335693359375e+02 2.039449462890625000e+02 1.507529754638671875e+02 1.991593627929687500e+02 2.145340423583984375e+02 2.172103118896484375e+02 1.990603637695312500e+02 1.682127685546875000e+02 1.442832641601562500e+02 1.053007049560546875e+02 1.214347381591796875e+02 9.514394378662109375e+01 8.771422576904296875e+01 1.017342529296875000e+02 1.087999191284179688e+02 1.177607650756835938e+02 1.074308319091796875e+02 7.560458374023437500e+01 9.453145599365234375e+01 7.401883697509765625e+01 2.821289062500000000e+01 1.992741966247558594e+01 0.000000000000000000e+00 0.000000000000000000e+00 0.000000000000000000e+00 0.000000000000000000e+00 0.000000000000000000e+00 0.000000000000000000e+00 0.000000000000000000e+00 0.000000000000000000e+00 0.000000000000000000e+00 0.000000000000000000e+00 0.000000000000000000e+00 0.000000000000000000e+00 0.000000000000000000e+00 0.000000000000000000e+00 0.000000000000000000e+00 0.000000000000000000e+00 0.000000000000000000e+00 0.000000000000000000e+00
0.000000000000000000e+00 0.000000000000000000e+00 0.000000000000000000e+00 0.000000000000000000e+00 0.000000000000000000e+00 0.000000000000000000e+00 0.000000000000000000e+00 0.000000000000000000e+00 0.000000000000000000e+00 0.000000000000000000e+00 0.000000000000000000e+00 0.000000000000000000e+00 4.264255046844482422e+00 1.293224239349365234e+01 3.505781936645507812e+01 5.274920272827148438e+01 8.295887756347656250e+01 1.173412551879882812e+02 1.183675994873046875e+02 1.174428100585937500e+02 1.167308578491210938e+02 1.169625701904296875e+02 1.163036956787109375e+02 1.233934631347656250e+02 1.187581176757812500e+02 1.154075927734375000e+02 1.136045379638671875e+02 1.118047485351562500e+02 9.749079132080078125e+01 1.073995666503906250e+02 1.061345062255859375e+02 7.435785675048828125e+01 1.113076629638671875e+02 1.110737457275390625e+02 1.117974853515625000e+02 1.098127899169921875e+02 1.099871673583984375e+02 8.111203002929687500e+01 1.189044647216796875e+02 1.167884063720703125e+02 5.751361083984375000e+01 9.562246704101562500e+01 1.186221466064453125e+02 1.248727264404296875e+02 9.951518249511718750e+01 9.135570526123046875e+01 9.063961791992187500e+01 1.268882522583007812e+02 1.310554199218750000e+02 1.313490600585937500e+02 1.151286315917968750e+02 1.242424163818359375e+02 1.291906280517578125e+02 1.216173477172851562e+02 7.281202697753906250e+01 1.221602783203125000e+02 1.106750717163085938e+02 1.221827697753906250e+02 1.292170562744140625e+02 1.295301361083984375e+02 1.311074523925781250e+02 1.295100402832031250e+02 1.401924591064453125e+02 1.368802642822265625e+02 1.431314392089843750e+02 1.390497131347656250e+02 1.086228027343750000e+02 1.512373657226562500e+02 1.076180572509765625e+02 1.361786651611328125e+02 1.588646850585937500e+02 1.676849060058593750e+02 2.011913299560546875e+02 2.190553894042968750e+02 1.978679199218750000e+02 2.059087829589843750e+02 2.151444396972656250e+02 1.792819061279296875e+02 2.137703552246093750e+02 1.799463195800781250e+02 2.009240264892578125e+02 2.067206878662109375e+02 1.694448547363281250e+02 1.730798645019531250e+02 2.143362274169921875e+02 1.941816406250000000e+02 1.348455810546875000e+02 1.354809265136718750e+02 1.394739227294921875e+02 1.246835632324218750e+02 1.438927917480468750e+02 1.171599884033203125e+02 1.211724166870117188e+02 1.293053894042968750e+02 1.370288391113281250e+02 1.355083923339843750e+02 9.744952392578125000e+01 5.779782867431640625e+01 3.082478713989257812e+01 3.646303939819335938e+01 2.695713424682617188e+01 2.214820289611816406e+01 4.010568141937255859e+00 0.000000000000000000e+00 0.000000000000000000e+00 0.000000000000000000e+00 0.000000000000000000e+00 0.000000000000000000e+00 0.000000000000000000e+00 0.000000000000000000e+00 0.000000000000000000e+00 0.000000000000000000e+00 0.000000000000000000e+00 0.000000000000000000e+00 0.000000000000000000e+00 0.000000000000000000e+00 0.000000000000000000e+00 0.000000000000000000e+00 0.000000000000000000e+00
0.000000000000000000e+00 0.000000000000000000e+00 0.000000000000000000e+00 0.000000000000000000e+00 0.000000000000000000e+00 0.000000000000000000e+00 0.000000000000000000e+00 0.000000000000000000e+00 0.000000000000000000e+00 0.000000000000000000e+00 0.000000000000000000e+00 0.000000000000000000e+00 0.000000000000000000e+00 0.000000000000000000e+00 0.000000000000000000e+00 1.577242732048034668e+00 1.767373657226562500e+01 4.629980850219726562e+01 8.085766601562500000e+01 1.209811248779296875e+02 1.195162353515625000e+02 1.214008789062500000e+02 1.250696945190429688e+02 1.331769409179687500e+02 1.330119171142578125e+02 1.274195327758789062e+02 1.243587341308593750e+02 1.197935333251953125e+02 1.164060516357421875e+02 1.018608551025390625e+02 1.132672195434570312e+02 1.030534210205078125e+02 8.392806243896484375e+01 1.001288604736328125e+02 1.171217422485351562e+02 1.195364532470703125e+02 1.197037429809570312e+02 9.613928222656250000e+01 1.210176849365234375e+02 1.264374084472656250e+02 8.266264343261718750e+01 1.017052459716796875e+02 1.051045074462890625e+02 1.353404541015625000e+02 1.249746322631835938e+02 1.110709915161132812e+02 7.753377532958984375e+01 1.020354614257812500e+02 1.345127868652343750e+02 1.370635223388671875e+02 1.307820739746093750e+02 1.297314910888671875e+02 1.378980560302734375e+02 1.260138244628906250e+02 9.142581176757812500e+01 1.023100128173828125e+02 1.282839660644531250e+02 1.261534042358398438e+02 1.227095642089843750e+02 1.290024871826171875e+02 1.345891113281250000e+02 1.458698883056640625e+02 1.512681274414062500e+02 1.388103179931640625e+02 1.529300842285156250e+02 1.531449127197265625e+02 1.306858978271484375e+02 1.341660003662109375e+02 1.444328155517578125e+02 1.031796646118164062e+02 1.248176879882812500e+02 1.725707550048828125e+02 1.624155578613281250e+02 2.062449340820312500e+02 2.223663330078125000e+02 2.281461029052734375e+02 2.301734771728515625e+02 1.928844604492187500e+02 2.113997497558593750e+02 1.899554901123046875e+02 2.169812011718750000e+02 2.041075134277343750e+02 1.969821472167968750e+02 1.954871826171875000e+02 1.811123352050781250e+02 2.116869964599609375e+02 1.549498748779296875e+02 1.632499847412109375e+02 1.487514495849609375e+02 1.345115051269531250e+02 1.476629943847656250e+02 1.291219024658203125e+02 1.533725891113281250e+02 1.427548522949218750e+02 1.418070983886718750e+02 1.265547027587890625e+02 9.581204986572265625e+01 4.065109634399414062e+01 9.436447143554687500e+01 8.908887481689453125e+01 9.077265930175781250e+01 4.606140136718750000e+01 3.188638687133789062e+01 2.624202728271484375e+01 9.445857048034667969e+00 0.000000000000000000e+00 0.000000000000000000e+00 0.000000000000000000e+00 0.000000000000000000e+00 0.000000000000000000e+00 0.000000000000000000e+00 0.000000000000000000e+00 0.000000000000000000e+00 0.000000000000000000e+00 0.000000000000000000e+00 0.000000000000000000e+00 0.000000000000000000e+00 0.000000000000000000e+00 0.000000000000000000e+00
0.000000000000000000e+00 0.000000000000000000e+00 0.000000000000000000e+00 0.000000000000000000e+00 0.000000000000000000e+00 0.000000000000000000e+00 0.000000000000000000e+00 0.000000000000000000e+00 0.000000000000000000e+00 0.000000000000000000e+00 0.000000000000000000e+00 0.000000000000000000e+00 0.000000000000000000e+00 0.000000000000000000e+00 0.000000000000000000e+00 0.000000000000000000e+00 0.000000000000000000e+00 1.702301406860351562e+01 4.630018997192382812e+01 9.992038726806640625e+01 1.226829071044921875e+02 1.219584732055664062e+02 1.260796813964843750e+02 1.377496948242187500e+02 1.401478576660156250e+02 1.328959197998046875e+02 1.292139434814453125e+02 1.244743957519531250e+02 1.214354705810546875e+02 1.188558502197265625e+02 1.098154830932617188e+02 1.110065689086914062e+02 1.139994201660156250e+02 8.659845733642578125e+01 1.188172836303710938e+02 1.252992553710937500e+02 1.263161315917968750e+02 9.644934082031250000e+01 1.224458618164062500e+02 1.268401641845703125e+02 8.966397094726562500e+01 9.900225830078125000e+01 1.095421752929687500e+02 1.237909469604492188e+02 1.359341430664062500e+02 1.183065414428710938e+02 7.219152832031250000e+01 9.554399108886718750e+01 1.227724304199218750e+02 1.363382568359375000e+02 1.333272399902343750e+02 1.393522644042968750e+02 1.365369262695312500e+02 1.342709350585937500e+02 1.201130981445312500e+02 9.150295257568359375e+01 1.224018478393554688e+02 1.229355468750000000e+02 1.304701995849609375e+02 1.362066192626953125e+02 1.397183227539062500e+02 1.454994659423828125e+02 1.511502380371093750e+02 1.492206573486328125e+02 1.628744812011718750e+02 1.558974914550781250e+02 1.225380096435546875e+02 1.556061706542968750e+02 1.595157165527343750e+02 1.186171112060546875e+02 1.476433715820312500e+02 1.751998291015625000e+02 1.860612335205078125e+02 1.922458496093750000e+02 2.116292266845703125e+02 2.355616760253906250e+02 2.327945098876953125e+02 2.197331848144531250e+02 2.089810791015625000e+02 1.950761413574218750e+02 1.989550933837890625e+02 2.197074432373046875e+02 1.992781066894531250e+02 1.884989929199218750e+02 2.047537078857421875e+02 2.063246765136718750e+02 1.736119842529296875e+02 1.716695556640625000e+02 1.538165283203125000e+02 1.502848510742187500e+02 1.494779052734375000e+02 1.493732147216796875e+02 1.582028808593750000e+02 1.491537780761718750e+02 1.213032073974609375e+02 1.070941696166992188e+02 6.178749465942382812e+01 6.356365966796875000e+01 1.110191192626953125e+02 1.187282714843750000e+02 1.126942672729492188e+02 6.530589294433593750e+01 4.513211441040039062e+01 3.358527755737304688e+01 2.662213325500488281e+01 1.645443725585937500e+01 1.204681777954101562e+01 0.000000000000000000e+00 0.000000000000000000e+00 0.000000000000000000e+00 0.000000000000000000e+00 0.000000000000000000e+00 0.000000000000000000e+00 0.000000000000000000e+00 0.000000000000000000e+00 0.000000000000000000e+00 0.000000000000000000e+00 0.000000000000000000e+00 0.000000000000000000e+00
0.000000000000000000e+00 0.000000000000000000e+00 0.000000000000000000e+00 0.000000000000000000e+00 0.000000000000000000e+00 0.000000000000000000e+00 0.000000000000000000e+00 0.000000000000000000e+00 0.000000000000000000e+00 0.000000000000000000e+00 0.000000000000000000e+00 0.000000000000000000e+00 0.000000000000000000e+00 0.000000000000000000e+00 0.000000000000000000e+00 0.000000000000000000e+00 0.000000000000000000e+00 0.000000000000000000e+00 1.966663932800292969e+01 5.055184936523437500e+01 1.137827224731445312e+02 1.240259857177734375e+02 1.254132690429687500e+02 1.277374725341796875e+02 1.316004638671875000e+02 1.314108581542968750e+02 1.307038116455078125e+02 1.320708923339843750e+02 1.287894592285156250e+02 1.299913787841796875e+02 1.277608337402343750e+02 1.281592559814453125e+02 1.199173965454101562e+02 1.187955093383789062e+02 1.049763412475585938e+02 1.274450302124023438e+02 1.247594070434570312e+02 1.114618988037109375e+02 1.213852844238281250e+02 1.270454635620117188e+02 1.238270797729492188e+02 7.388874816894531250e+01 1.227732849121093750e+02 1.282601470947265625e+02 1.275510406494140625e+02 1.341219940185546875e+02 9.912207031250000000e+01 7.962008666992187500e+01 1.170188140869140625e+02 1.375953521728515625e+02 1.408684692382812500e+02 1.405835113525390625e+02 1.457249298095703125e+02 1.448201904296875000e+02 1.423211669921875000e+02 1.110467300415039062e+02 9.108944702148437500e+01 9.595869445800781250e+01 1.097596740722656250e+02 1.204885253906250000e+02 1.142981872558593750e+02 1.195336456298828125e+02 1.510324401855468750e+02 1.639390563964843750e+02 1.612166900634765625e+02 1.650613708496093750e+02 1.331667633056640625e+02 1.711367340087890625e+02 1.963769989013671875e+02 1.458546600341796875e+02 1.346011962890625000e+02 2.122713928222656250e+02 2.266073913574218750e+02 2.297166595458984375e+02 2.234568939208984375e+02 2.304667663574218750e+02 2.374530792236328125e+02 2.222321777343750000e+02 2.073814239501953125e+02 2.306141815185546875e+02 2.222260131835937500e+02 2.362555084228515625e+02 2.160982360839843750e+02 2.124757843017578125e+02 2.111279449462890625e+02 2.251499938964843750e+02 1.999736938476562500e+02 1.999569549560546875e+02 1.661006317138671875e+02 1.578041381835937500e+02 1.497481079101562500e+02 1.730397644042968750e+02 1.598778839111328125e+02 1.181324615478515625e+02 8.691490173339843750e+01 7.382222747802734375e+01 6.949715423583984375e+01 1.073045196533203125e+02 1.114331817626953125e+02 1.607628936767578125e+02 1.145069274902343750e+02 9.556173706054687500e+01 9.709240722656250000e+01 8.242037963867187500e+01 6.380652236938476562e+01 3.683625030517578125e+01 3.089063644409179688e+01 9.492562294006347656e+00 0.000000000000000000e+00 0.000000000000000000e+00 0.000000000000000000e+00 0.000000000000000000e+00 0.000000000000000000e+00 0.000000000000000000e+00 0.000000000000000000e+00 0.000000000000000000e+00 0.000000000000000000e+00 0.000000000000000000e+00 0.000000000000000000e+00
0.000000000000000000e+00 0.000000000000000000e+00 0.000000000000000000e+00 0.000000000000000000e+00 0.000000000000000000e+00 0.000000000000000000e+00 0.000000000000000000e+00 0.000000000000000000e+00 0.000000000000000000e+00 0.000000000000000000e+00 0.000000000000000000e+00 0.000000000000000000e+00 0.000000000000000000e+00 0.000000000000000000e+00 0.000000000000000000e+00 0.000000000000000000e+00 0.000000000000000000e+00 0.000000000000000000e+00 1.604571151733398438e+01 3.700607681274414062e+01 9.384937286376953125e+01 1.244412460327148438e+02 1.255856323242187500e+02 1.275916595458984375e+02 1.300932922363281250e+02 1.326403656005859375e+02 1.328330383300781250e+02 1.349152221679687500e+02 1.322836303710937500e+02 1.335215148925781250e+02 1.340957336425781250e+02 1.341105194091796875e+02 1.262424240112304688e+02 1.222120513916015625e+02 1.133183059692382812e+02 1.229512176513671875e+02 1.304363403320312500e+02 1.211196136474609375e+02 1.186434249877929688e+02 1.316759796142578125e+02 1.318820495605468750e+02 7.044700622558593750e+01 1.060175552368164062e+02 1.330887908935546875e+02 1.359936218261718750e+02 1.431588745117187500e+02 1.306558837890625000e+02 8.762406158447265625e+01 9.474954223632812500e+01 1.177903442382812500e+02 1.449261627197265625e+02 1.491020812988281250e+02 1.450518646240234375e+02 1.510946350097656250e+02 1.424393310546875000e+02 1.169895858764648438e+02 1.178474578857421875e+02 1.181779708862304688e+02 1.140940017700195312e+02 1.071345367431640625e+02 1.319902038574218750e+02 1.439004058837890625e+02 1.271387176513671875e+02 1.642274322509765625e+02 1.649487915039062500e+02 1.702475128173828125e+02 1.488896179199218750e+02 1.732375793457031250e+02 2.084642944335937500e+02 1.465859527587890625e+02 1.152417526245117188e+02 1.597299499511718750e+02 1.711365509033203125e+02 2.295880889892578125e+02 2.413188171386718750e+02 2.294662780761718750e+02 2.513738403320312500e+02 2.323264465332031250e+02 2.207816009521484375e+02 2.354282531738281250e+02 2.146327819824218750e+02 2.442883911132812500e+02 2.335991516113281250e+02 2.343632049560546875e+02 2.203510742187500000e+02 2.358140106201171875e+02 2.077388916015625000e+02 2.180648345947265625e+02 1.832658386230468750e+02 1.781922607421875000e+02 1.665095214843750000e+02 1.874332275390625000e+02 1.679865722656250000e+02 1.270749664306640625e+02 1.074535522460937500e+02 7.934035491943359375e+01 6.149254608154296875e+01 1.112428817749023438e+02 1.218365020751953125e+02 1.635074310302734375e+02 1.423686218261718750e+02 1.067736587524414062e+02 9.187619781494140625e+01 9.426920318603515625e+01 8.538190460205078125e+01 6.385358047485351562e+01 5.465741348266601562e+01 3.804717636108398438e+01 2.263378715515136719e+01 8.785018920898437500e+00 2.451964139938354492e+00 0.000000000000000000e+00 0.000000000000000000e+00 0.000000000000000000e+00 0.000000000000000000e+00 0.000000000000000000e+00 0.000000000000000000e+00 0.000000000000000000e+00 0.000000000000000000e+00
0.000000000000000000e+00 0.000000000000000000e+00 0.000000000000000000e+00 0.000000000000000000e+00 0.000000000000000000e+00 0.000000000000000000e+00 0.000000000000000000e+00 0.000000000000000000e+00 0.000000000000000000e+00 0.000000000000000000e+00 0.000000000000000000e+00 0.000000000000000000e+00 0.000000000000000000e+00 0.000000000000000000e+00 0.000000000000000000e+00 0.000000000000000000e+00 0.000000000000000000e+00 0.000000000000000000e+00 1.294448757171630859e+01 2.624252128601074219e+01 7.058302307128906250e+01 1.363709869384765625e+02 1.335488739013671875e+02 1.378321380615234375e+02 1.366687774658203125e+02 1.389540863037109375e+02 1.421874847412109375e+02 1.403684844970703125e+02 1.405133361816406250e+02 1.409319915771484375e+02 1.411951599121093750e+02 1.398421020507812500e+02 1.386439514160156250e+02 1.339070892333984375e+02 1.172170944213867188e+02 1.379618988037109375e+02 1.384066619873046875e+02 1.397570343017578125e+02 1.362750244140625000e+02 1.264038543701171875e+02 1.324990539550781250e+02 7.806541442871093750e+01 1.055786437988281250e+02 1.444558105468750000e+02 1.519678802490234375e+02 1.531201171875000000e+02 1.578106231689453125e+02 1.157801055908203125e+02 1.290032043457031250e+02 1.125024032592773438e+02 9.685739898681640625e+01 1.487483520507812500e+02 1.598296051025390625e+02 1.647473449707031250e+02 1.525455322265625000e+02 1.508287200927734375e+02 1.387782897949218750e+02 1.420739440917968750e+02 1.583363037109375000e+02 1.611066436767578125e+02 1.315503234863281250e+02 1.642658081054687500e+02 1.709725799560546875e+02 1.410856475830078125e+02 1.820098266601562500e+02 1.743408050537109375e+02 1.575294799804687500e+02 2.237781066894531250e+02 2.243896179199218750e+02 1.695159454345703125e+02 1.213953475952148438e+02 1.454985046386718750e+02 1.320048217773437500e+02 1.311818084716796875e+02 1.734505462646484375e+02 2.355645446777343750e+02 2.583630981445312500e+02 2.569822082519531250e+02 2.271583862304687500e+02 2.595754699707031250e+02 2.262704925537109375e+02 2.617866516113281250e+02 2.642446289062500000e+02 2.941646118164062500e+02 2.959397277832031250e+02 2.726769714355468750e+02 2.372889099121093750e+02 2.401225891113281250e+02 2.274273376464843750e+02 2.289808959960937500e+02 2.182580413818359375e+02 2.110602111816406250e+02 1.840518341064453125e+02 1.434449615478515625e+02 1.309419708251953125e+02 1.221701202392578125e+02 8.502040100097656250e+01 1.145551605224609375e+02 1.504507598876953125e+02 1.741624603271484375e+02 1.871111450195312500e+02 1.737981414794921875e+02 1.422989349365234375e+02 1.330878448486328125e+02 1.152011108398437500e+02 1.254165267944335938e+02 1.190288085937500000e+02 1.227042846679687500e+02 1.035194168090820312e+02 9.210578155517578125e+01 8.468110656738281250e+01 6.675253295898437500e+01 2.926763534545898438e+01 2.028000354766845703e-01 0.000000000000000000e+00 0.000000000000000000e+00 0.000000000000000000e+00 0.000000000000000000e+00 0.000000000000000000e+00
0.000000000000000000e+00 0.000000000000000000e+00 0.000000000000000000e+00 0.000000000000000000e+00 0.000000000000000000e+00 0.000000000000000000e+00 0.000000000000000000e+00 0.000000000000000000e+00 0.000000000000000000e+00 0.000000000000000000e+00 0.000000000000000000e+00 0.000000000000000000e+00 0.000000000000000000e+00 0.000000000000000000e+00 0.000000000000000000e+00 0.000000000000000000e+00 0.000000000000000000e+00 0.000000000000000000e+00 4.111493587493896484e+00 1.991580009460449219e+01 6.329020690917968750e+01 1.369800262451171875e+02 1.404386596679687500e+02 1.376671447753906250e+02 1.428002624511718750e+02 1.470797729492187500e+02 1.454600372314453125e+02 1.490790100097656250e+02 1.524548950195312500e+02 1.558431549072265625e+02 1.574178619384765625e+02 1.497832336425781250e+02 1.502497711181640625e+02 1.337104644775390625e+02 1.400002288818359375e+02 1.486181793212890625e+02 1.524217224121093750e+02 1.565787200927734375e+02 1.539149169921875000e+02 1.418889923095703125e+02 1.537978515625000000e+02 1.155480957031250000e+02 1.124836273193359375e+02 1.574469451904296875e+02 1.504031982421875000e+02 1.616702880859375000e+02 1.658964385986328125e+02 1.552727661132812500e+02 1.612393798828125000e+02 1.537033081054687500e+02 1.290865631103515625e+02 1.097363433837890625e+02 1.310169982910156250e+02 1.656281433105468750e+02 1.726458129882812500e+02 1.639945983886718750e+02 1.463867797851562500e+02 1.374551086425781250e+02 1.624002380371093750e+02 1.717784423828125000e+02 1.502239532470703125e+02 1.653902130126953125e+02 1.854761047363281250e+02 1.422466125488281250e+02 1.592615051269531250e+02 2.083992767333984375e+02 2.252941284179687500e+02 1.881376342773437500e+02 2.484871978759765625e+02 2.215482482910156250e+02 1.276702651977539062e+02 1.493060455322265625e+02 1.635039062500000000e+02 2.049504241943359375e+02 1.624424133300781250e+02 1.516677551269531250e+02 2.401534576416015625e+02 2.459020080566406250e+02 2.598807678222656250e+02 2.388483886718750000e+02 2.482434997558593750e+02 2.756543884277343750e+02 3.280657348632812500e+02 3.375826721191406250e+02 3.174746093750000000e+02 3.103688354492187500e+02 2.937156066894531250e+02 2.956532592773437500e+02 2.617529907226562500e+02 2.791704101562500000e+02 2.600835571289062500e+02 2.303737640380859375e+02 1.937828674316406250e+02 1.749669647216796875e+02 1.680945587158203125e+02 1.567306518554687500e+02 8.626916503906250000e+01 1.557981872558593750e+02 1.936203765869140625e+02 1.901233825683593750e+02 2.033145599365234375e+02 1.994132080078125000e+02 1.932111053466796875e+02 1.838629913330078125e+02 1.744760742187500000e+02 1.614697418212890625e+02 1.567584381103515625e+02 1.510979461669921875e+02 1.395634155273437500e+02 1.264536895751953125e+02 1.042120819091796875e+02 7.341256713867187500e+01 3.873487091064453125e+01 9.288095474243164062e+00 0.000000000000000000e+00 0.000000000000000000e+00 0.000000000000000000e+00 0.000000000000000000e+00 0.000000000000000000e+00
0.000000000000000000e+00 0.000000000000000000e+00 0.000000000000000000e+00 0.000000000000000000e+00 0.000000000000000000e+00 0.000000000000000000e+00 0.000000000000000000e+00 0.000000000000000000e+00 0.000000000000000000e+00 0.000000000000000000e+00 0.000000000000000000e+00 0.000000000000000000e+00 0.000000000000000000e+00 0.000000000000000000e+00 0.000000000000000000e+00 0.000000000000000000e+00 0.000000000000000000e+00 0.000000000000000000e+00 4.896361231803894043e-01 1.549394416809082031e+01 4.071462631225585938e+01 8.687688446044921875e+01 1.347357940673828125e+02 1.405998535156250000e+02 1.428175659179687500e+02 1.502234497070312500e+02 1.516613006591796875e+02 1.503213500976562500e+02 1.557322540283203125e+02 1.575047454833984375e+02 1.640325927734375000e+02 1.594060668945312500e+02 1.536844482421875000e+02 1.396852416992187500e+02 1.389849853515625000e+02 1.488891906738281250e+02 1.591464233398437500e+02 1.617877044677734375e+02 1.585847015380859375e+02 1.442643737792968750e+02 1.581898498535156250e+02 1.546270751953125000e+02 8.819091796875000000e+01 1.458728485107421875e+02 1.586457519531250000e+02 1.645087890625000000e+02 1.694644927978515625e+02 1.656003875732421875e+02 1.652393493652343750e+02 1.583826751708984375e+02 1.371473541259765625e+02 1.329561462402343750e+02 1.168105926513671875e+02 1.545848693847656250e+02 1.763199157714843750e+02 1.742307739257812500e+02 1.559848632812500000e+02 1.503200836181640625e+02 1.664115295410156250e+02 1.801279602050781250e+02 1.550472259521484375e+02 1.520295104980468750e+02 1.848090057373046875e+02 1.790520629882812500e+02 1.426637878417968750e+02 2.025255737304687500e+02 2.337946929931640625e+02 2.261015777587890625e+02 2.491986999511718750e+02 2.253245239257812500e+02 1.315490570068359375e+02 1.973159637451171875e+02 2.005747985839843750e+02 2.048496856689453125e+02 2.141922760009765625e+02 1.493728332519531250e+02 2.091677246093750000e+02 2.562359313964843750e+02 2.707948608398437500e+02 2.440241546630859375e+02 2.763874816894531250e+02 3.045855712890625000e+02 3.531202087402343750e+02 3.707526550292968750e+02 3.425259399414062500e+02 3.443147583007812500e+02 3.152900085449218750e+02 3.224875488281250000e+02 2.897922973632812500e+02 2.855252990722656250e+02 2.615558471679687500e+02 2.456482696533203125e+02 2.077734375000000000e+02 2.014218750000000000e+02 1.803349761962890625e+02 1.509375915527343750e+02 8.338840484619140625e+01 1.750823516845703125e+02 1.966663970947265625e+02 1.817656707763671875e+02 1.770145721435546875e+02 1.734188842773437500e+02 1.584526367187500000e+02 1.503214569091796875e+02 1.393339538574218750e+02 1.289461975097656250e+02 1.315951843261718750e+02 1.265398635864257812e+02 1.192936401367187500e+02 1.140941314697265625e+02 1.110283508300781250e+02 8.095227813720703125e+01 5.230066299438476562e+01 2.617168426513671875e+01 1.448963928222656250e+01 1.051446723937988281e+01 8.024265289306640625e+00 1.037614917755126953e+01 9.591164588928222656e+00
0.000000000000000000e+00 0.000000000000000000e+00 0.000000000000000000e+00 0.000000000000000000e+00 0.000000000000000000e+00 0.000000000000000000e+00 0.000000000000000000e+00 0.000000000000000000e+00 0.000000000000000000e+00 0.000000000000000000e+00 0.000000000000000000e+00 0.000000000000000000e+00 0.000000000000000000e+00 0.000000000000000000e+00 0.000000000000000000e+00 0.000000000000000000e+00 0.000000000000000000e+00 0.000000000000000000e+00 0.000000000000000000e+00 0.000000000000000000e+00 6.646274566650390625e+00 2.935756301879882812e+01 6.287465667724609375e+01 1.305261688232421875e+02 1.436682128906250000e+02 1.497825622558593750e+02 1.546351623535156250e+02 1.653288574218750000e+02 1.699622802734375000e+02 1.700718078613281250e+02 1.691763610839843750e+02 1.669342041015625000e+02 1.629480438232421875e+02 1.644768676757812500e+02 1.600982055664062500e+02 1.531521911621093750e+02 1.399911956787109375e+02 1.551671600341796875e+02 1.580529785156250000e+02 1.608167724609375000e+02 1.534558715820312500e+02 1.614169464111328125e+02 1.070794754028320312e+02 1.355084075927734375e+02 1.527831573486328125e+02 1.627114257812500000e+02 1.705372924804687500e+02 1.797254180908203125e+02 1.831316223144531250e+02 1.804563598632812500e+02 1.801025238037109375e+02 1.792343750000000000e+02 1.425756835937500000e+02 1.201947174072265625e+02 1.857301635742187500e+02 1.876073913574218750e+02 1.787677612304687500e+02 1.740155181884765625e+02 1.815055694580078125e+02 1.909113464355468750e+02 1.544494628906250000e+02 1.823274230957031250e+02 2.113312835693359375e+02 2.383447723388671875e+02 1.998124389648437500e+02 1.713380889892578125e+02 2.327501831054687500e+02 2.398892517089843750e+02 2.496185913085937500e+02 1.452479095458984375e+02 1.493154907226562500e+02 2.070624542236328125e+02 2.438812713623046875e+02 2.777245483398437500e+02 2.788017272949218750e+02 1.903247833251953125e+02 1.763417510986328125e+02 2.695408325195312500e+02 3.083829345703125000e+02 3.088425903320312500e+02 3.359585571289062500e+02 3.370134277343750000e+02 3.554528198242187500e+02 3.341815185546875000e+02 3.287121582031250000e+02 3.023303222656250000e+02 2.923963623046875000e+02 2.634612426757812500e+02 2.367374877929687500e+02 2.401763305664062500e+02 2.258964233398437500e+02 2.015235595703125000e+02 1.950928344726562500e+02 1.645635833740234375e+02 1.478651580810546875e+02 1.394046630859375000e+02 1.112646865844726562e+02 8.897519683837890625e+01 9.621100616455078125e+01 1.007065505981445312e+02 1.221705093383789062e+02 1.564865570068359375e+02 1.398350830078125000e+02 1.294737701416015625e+02 1.134659881591796875e+02 1.114762878417968750e+02 1.023559570312500000e+02 1.000309524536132812e+02 8.719945526123046875e+01 9.020706176757812500e+01 8.296028900146484375e+01 1.042068099975585938e+02 8.068724060058593750e+01 6.191246414184570312e+01 5.449284362792968750e+01 4.622502517700195312e+01 6.214361953735351562e+01 7.189275360107421875e+01 6.984445190429687500e+01
0.000000000000000000e+00 0.000000000000000000e+00 0.000000000000000000e+00 0.000000000000000000e+00 0.000000000000000000e+00 0.000000000000000000e+00 0.000000000000000000e+00 0.000000000000000000e+00 0.000000000000000000e+00 0.000000000000000000e+00 0.000000000000000000e+00 0.000000000000000000e+00 0.000000000000000000e+00 0.000000000000000000e+00 0.000000000000000000e+00 0.000000000000000000e+00 0.000000000000000000e+00 0.000000000000000000e+00 0.000000000000000000e+00 0.000000000000000000e+00 0.000000000000000000e+00 2.385492563247680664e+00 2.308252334594726562e+01 4.045852661132812500e+01 6.126334381103515625e+01 1.009836044311523438e+02 1.217490234375000000e+02 1.758837890625000000e+02 1.849380035400390625e+02 1.800082702636718750e+02 1.866210021972656250e+02 1.810625762939453125e+02 1.765712280273437500e+02 1.727825622558593750e+02 1.714985046386718750e+02 1.662365112304687500e+02 1.569942932128906250e+02 1.580123901367187500e+02 1.613201904296875000e+02 1.632119598388671875e+02 1.593722381591796875e+02 1.581562500000000000e+02 1.547557067871093750e+02 1.151124877929687500e+02 1.088592224121093750e+02 1.429386596679687500e+02 1.314477539062500000e+02 1.417421722412109375e+02 1.607234802246093750e+02 1.685689849853515625e+02 1.818106536865234375e+02 1.925016937255859375e+02 1.901192626953125000e+02 1.658074188232421875e+02 1.277255096435546875e+02 1.914394836425781250e+02 2.025584106445312500e+02 2.142391815185546875e+02 2.140915985107421875e+02 2.260656890869140625e+02 2.091128692626953125e+02 1.945036163330078125e+02 2.376837768554687500e+02 2.567847900390625000e+02 2.142809753417968750e+02 1.913545989990234375e+02 2.134281616210937500e+02 2.639306030273437500e+02 1.963457031250000000e+02 1.998099517822265625e+02 2.358978576660156250e+02 2.112833404541015625e+02 2.235128631591796875e+02 2.613479614257812500e+02 2.902312622070312500e+02 2.230176086425781250e+02 1.893037109375000000e+02 2.302021484375000000e+02 2.596011962890625000e+02 2.764714355468750000e+02 2.719710693359375000e+02 2.853635864257812500e+02 2.733389282226562500e+02 2.931430053710937500e+02 2.833169250488281250e+02 2.678619079589843750e+02 2.338559722900390625e+02 2.143670959472656250e+02 1.897203521728515625e+02 1.744606628417968750e+02 1.668408508300781250e+02 1.815907745361328125e+02 1.489134826660156250e+02 1.407803039550781250e+02 1.364305114746093750e+02 1.224019088745117188e+02 1.011579437255859375e+02 1.460315246582031250e+02 1.531051025390625000e+02 9.435733032226562500e+01 1.350858764648437500e+02 1.671716613769531250e+02 1.488095855712890625e+02 1.307219085693359375e+02 1.457878723144531250e+02 1.380682220458984375e+02 1.429679260253906250e+02 1.350972137451171875e+02 1.146830596923828125e+02 1.371933746337890625e+02 1.341037597656250000e+02 1.185206527709960938e+02 9.017006683349609375e+01 8.255946350097656250e+01 7.227864074707031250e+01 6.240773010253906250e+01 3.741847610473632812e+01 5.399750137329101562e+01 6.233317565917968750e+01
0.000000000000000000e+00 0.000000000000000000e+00 0.000000000000000000e+00 0.000000000000000000e+00 0.000000000000000000e+00 0.000000000000000000e+00 0.000000000000000000e+00 0.000000000000000000e+00 0.000000000000000000e+00 0.000000000000000000e+00 0.000000000000000000e+00 0.000000000000000000e+00 0.000000000000000000e+00 0.000000000000000000e+00 0.000000000000000000e+00 0.000000000000000000e+00 0.000000000000000000e+00 0.000000000000000000e+00 0.000000000000000000e+00 0.000000000000000000e+00 0.000000000000000000e+00 0.000000000000000000e+00 4.590340614318847656e+00 1.918993568420410156e+01 3.642689514160156250e+01 6.204859924316406250e+01 8.705499267578125000e+01 1.724398956298828125e+02 1.854081878662109375e+02 1.840141601562500000e+02 1.886990051269531250e+02 1.907234649658203125e+02 1.852920074462890625e+02 1.783272247314453125e+02 1.766024017333984375e+02 1.718373718261718750e+02 1.674127044677734375e+02 1.631457977294921875e+02 1.615104217529296875e+02 1.609918212890625000e+02 1.492171173095703125e+02 1.442718048095703125e+02 1.459131164550781250e+02 1.438787231445312500e+02 1.136631164550781250e+02 1.060906372070312500e+02 1.145363311767578125e+02 1.678786315917968750e+02 1.764609680175781250e+02 1.783136444091796875e+02 1.817319335937500000e+02 1.786426391601562500e+02 1.917396697998046875e+02 1.793590087890625000e+02 1.326173706054687500e+02 1.392342834472656250e+02 1.461983184814453125e+02 1.890684814453125000e+02 2.028503265380859375e+02 2.132806091308593750e+02 2.172923431396484375e+02 1.800432739257812500e+02 2.067842407226562500e+02 2.262104492187500000e+02 2.221016082763671875e+02 2.069618835449218750e+02 1.728744659423828125e+02 2.096091918945312500e+02 2.011221008300781250e+02 1.788610839843750000e+02 2.101515655517578125e+02 2.318265533447265625e+02 2.293128814697265625e+02 2.283756713867187500e+02 2.526443634033203125e+02 2.399322052001953125e+02 1.713408355712890625e+02 1.808540344238281250e+02 1.924920654296875000e+02 2.239326324462890625e+02 2.147593688964843750e+02 2.309973449707031250e+02 2.468567810058593750e+02 2.586561584472656250e+02 2.878074951171875000e+02 2.766173706054687500e+02 2.476130523681640625e+02 2.270808410644531250e+02 2.226207580566406250e+02 2.326979370117187500e+02 2.222806091308593750e+02 2.222918395996093750e+02 1.602369689941406250e+02 1.209275970458984375e+02 1.155141983032226562e+02 1.223872604370117188e+02 1.365533599853515625e+02 1.782294006347656250e+02 1.331863250732421875e+02 9.653421020507812500e+01 1.447183990478515625e+02 1.670235900878906250e+02 1.506524810791015625e+02 1.352834167480468750e+02 1.463454284667968750e+02 1.494343109130859375e+02 1.440921325683593750e+02 1.441719970703125000e+02 1.279182739257812500e+02 1.419530334472656250e+02 1.463157043457031250e+02 1.463608703613281250e+02 1.169336242675781250e+02 1.013179931640625000e+02 6.892071533203125000e+01 6.724856567382812500e+01 5.283987045288085938e+01 3.965159606933593750e+01 4.621551895141601562e+01
0.000000000000000000e+00 0.000000000000000000e+00 0.000000000000000000e+00 0.000000000000000000e+00 0.000000000000000000e+00 0.000000000000000000e+00 0.000000000000000000e+00 0.000000000000000000e+00 0.000000000000000000e+00 0.000000000000000000e+00 0.000000000000000000e+00 0.000000000000000000e+00 0.000000000000000000e+00 0.000000000000000000e+00 0.000000000000000000e+00 0.000000000000000000e+00 0.000000000000000000e+00 0.000000000000000000e+00 0.000000000000000000e+00 0.000000000000000000e+00 0.000000000000000000e+00 0.000000000000000000e+00 0.000000000000000000e+00 0.000000000000000000e+00 8.041872024536132812e+00 2.326102638244628906e+01 3.372849273681640625e+01 7.947100830078125000e+01 1.604209747314453125e+02 1.741684570312500000e+02 1.901885986328125000e+02 1.941864013671875000e+02 1.953412780761718750e+02 1.871809387207031250e+02 1.922374725341796875e+02 1.859744262695312500e+02 1.867038574218750000e+02 1.791942443847656250e+02 1.719434051513671875e+02 1.674380493164062500e+02 1.602748413085937500e+02 1.491622161865234375e+02 1.462187194824218750e+02 1.115036087036132812e+02 1.114136810302734375e+02 1.110051651000976562e+02 1.389175567626953125e+02 1.190467681884765625e+02 1.462589721679687500e+02 1.705871276855468750e+02 1.926383972167968750e+02 2.028515625000000000e+02 2.042334747314453125e+02 1.986936645507812500e+02 1.769138641357421875e+02 2.004917449951171875e+02 2.024654846191406250e+02 1.534588775634765625e+02 1.504375305175781250e+02 1.757954711914062500e+02 1.656556091308593750e+02 1.769970703125000000e+02 2.369782867431640625e+02 2.155525817871093750e+02 2.344241485595703125e+02 2.411937713623046875e+02 2.482050628662109375e+02 2.185309448242187500e+02 2.049962921142578125e+02 2.088385314941406250e+02 2.346287689208984375e+02 2.016467742919921875e+02 1.912624511718750000e+02 2.082010192871093750e+02 2.387830047607421875e+02 2.805427246093750000e+02 2.725497131347656250e+02 2.433034973144531250e+02 2.580529479980468750e+02 2.367501525878906250e+02 2.054617004394531250e+02 2.707890014648437500e+02 2.727162170410156250e+02 2.809169921875000000e+02 2.896401977539062500e+02 3.360533447265625000e+02 2.971068115234375000e+02 2.565240478515625000e+02 2.208273162841796875e+02 1.910196990966796875e+02 1.722908020019531250e+02 1.818760375976562500e+02 1.786663818359375000e+02 1.950726318359375000e+02 1.850651855468750000e+02 1.663290710449218750e+02 1.524044799804687500e+02 1.558379516601562500e+02 1.038506469726562500e+02 1.535880279541015625e+02 1.739110870361328125e+02 1.679739074707031250e+02 1.651861114501953125e+02 1.567089843750000000e+02 1.287686157226562500e+02 1.137451782226562500e+02 1.392507019042968750e+02 1.253137054443359375e+02 1.381793518066406250e+02 1.462993316650390625e+02 1.081187591552734375e+02 1.110046463012695312e+02 1.015894775390625000e+02 1.081882781982421875e+02 7.748755645751953125e+01 3.635584259033203125e+01 3.390559387207031250e+01 2.823139190673828125e+01 2.622296333312988281e+01
0.000000000000000000e+00 0.000000000000000000e+00 0.000000000000000000e+00 0.000000000000000000e+00 0.000000000000000000e+00 0.000000000000000000e+00 0.000000000000000000e+00 0.000000000000000000e+00 0.000000000000000000e+00 0.000000000000000000e+00 0.000000000000000000e+00 0.000000000000000000e+00 0.000000000000000000e+00 0.000000000000000000e+00 0.000000000000000000e+00 0.000000000000000000e+00 0.000000000000000000e+00 0.000000000000000000e+00 0.000000000000000000e+00 0.000000000000000000e+00 0.000000000000000000e+00 0.000000000000000000e+00 0.000000000000000000e+00 0.000000000000000000e+00 2.990959167480468750e+00 1.450272560119628906e+01 2.237219429016113281e+01 4.845139312744140625e+01 1.050255584716796875e+02 1.274238357543945312e+02 1.800835876464843750e+02 1.928450317382812500e+02 1.991714172363281250e+02 1.936167602539062500e+02 1.993240966796875000e+02 1.959806976318359375e+02 1.978879547119140625e+02 1.886392364501953125e+02 1.813226013183593750e+02 1.749524993896484375e+02 1.662092132568359375e+02 1.599800415039062500e+02 1.438450317382812500e+02 1.141138153076171875e+02 1.332418060302734375e+02 1.233181457519531250e+02 1.353033447265625000e+02 1.352093811035156250e+02 1.395439453125000000e+02 1.420857849121093750e+02 1.806963348388671875e+02 1.988880310058593750e+02 2.119296569824218750e+02 1.919480743408203125e+02 1.978722839355468750e+02 2.446614685058593750e+02 2.370641174316406250e+02 1.817341156005859375e+02 1.933876647949218750e+02 1.955992584228515625e+02 1.841950683593750000e+02 1.879938812255859375e+02 2.331413269042968750e+02 2.456386871337890625e+02 2.556645507812500000e+02 2.549039001464843750e+02 2.527406463623046875e+02 2.349897766113281250e+02 2.545950012207031250e+02 1.908222656250000000e+02 2.331109161376953125e+02 2.504861145019531250e+02 2.367512512207031250e+02 2.064841003417968750e+02 2.068997955322265625e+02 2.619756469726562500e+02 2.902160644531250000e+02 2.766611328125000000e+02 2.832655639648437500e+02 2.802623901367187500e+02 2.152515258789062500e+02 2.732952880859375000e+02 2.917152709960937500e+02 3.156501770019531250e+02 3.231441040039062500e+02 3.222730712890625000e+02 3.172851562500000000e+02 2.654835510253906250e+02 2.264354858398437500e+02 2.138051757812500000e+02 2.159609527587890625e+02 2.215556182861328125e+02 2.185799713134765625e+02 2.067240600585937500e+02 1.712716979980468750e+02 1.593680114746093750e+02 1.912994995117187500e+02 1.646244354248046875e+02 1.066749420166015625e+02 1.792565917968750000e+02 1.753162841796875000e+02 1.698189697265625000e+02 1.594973907470703125e+02 1.498219757080078125e+02 1.435383453369140625e+02 1.060742034912109375e+02 1.021150131225585938e+02 1.278730087280273438e+02 1.048888473510742188e+02 1.374656677246093750e+02 1.323366088867187500e+02 1.074931335449218750e+02 7.711192321777343750e+01 8.611634063720703125e+01 4.969527053833007812e+01 3.766365814208984375e+01 7.407244110107421875e+01 3.963669967651367188e+01 3.068095970153808594e+01
0.000000000000000000e+00 0.000000000000000000e+00 0.000000000000000000e+00 0.000000000000000000e+00 0.000000000000000000e+00 0.000000000000000000e+00 0.000000000000000000e+00 0.000000000000000000e+00 0.000000000000000000e+00 0.000000000000000000e+00 0.000000000000000000e+00 0.000000000000000000e+00 0.000000000000000000e+00 0.000000000000000000e+00 0.000000000000000000e+00 0.000000000000000000e+00 0.000000000000000000e+00 0.000000000000000000e+00 0.000000000000000000e+00 0.000000000000000000e+00 0.000000000000000000e+00 0.000000000000000000e+00 0.000000000000000000e+00 0.000000000000000000e+00 0.000000000000000000e+00 9.574475288391113281e+00 1.533278465270996094e+01 3.002054595947265625e+01 4.459535980224609375e+01 9.217662811279296875e+01 1.789790649414062500e+02 1.897296905517578125e+02 1.981212310791015625e+02 2.066464691162109375e+02 2.107844390869140625e+02 2.151071472167968750e+02 2.181743621826171875e+02 2.150189361572265625e+02 2.053888854980468750e+02 1.937337188720703125e+02 1.807613372802734375e+02 1.701238403320312500e+02 1.525241546630859375e+02 1.433719329833984375e+02 1.616404113769531250e+02 1.354286346435546875e+02 1.573818359375000000e+02 1.506976928710937500e+02 1.440563507080078125e+02 1.399308929443359375e+02 1.890671539306640625e+02 1.878087005615234375e+02 2.047697296142578125e+02 2.145950012207031250e+02 2.006499328613281250e+02 2.298996582031250000e+02 2.306585235595703125e+02 2.164259338378906250e+02 2.165332031250000000e+02 1.843998413085937500e+02 2.315267944335937500e+02 1.856669464111328125e+02 1.947550201416015625e+02 2.430751953125000000e+02 2.748967285156250000e+02 2.810806274414062500e+02 2.947874755859375000e+02 2.824387207031250000e+02 2.718698730468750000e+02 2.250291595458984375e+02 1.990274963378906250e+02 2.383612213134765625e+02 2.510939636230468750e+02 2.683610229492187500e+02 2.253518524169921875e+02 2.370122070312500000e+02 2.704659423828125000e+02 3.161123352050781250e+02 3.325556335449218750e+02 2.883269042968750000e+02 2.780567321777343750e+02 2.573300170898437500e+02 3.396322021484375000e+02 3.423388061523437500e+02 3.021082763671875000e+02 2.610809631347656250e+02 2.490999755859375000e+02 2.958125305175781250e+02 3.018865661621093750e+02 2.536799163818359375e+02 2.578446960449218750e+02 2.230832214355468750e+02 2.280218811035156250e+02 2.017100982666015625e+02 2.110578002929687500e+02 1.990260314941406250e+02 1.426370697021484375e+02 1.116432189941406250e+02 1.579449920654296875e+02 1.860348205566406250e+02 1.730283508300781250e+02 1.585176086425781250e+02 1.403765411376953125e+02 1.370774993896484375e+02 1.383164215087890625e+02 1.339992980957031250e+02 1.016764068603515625e+02 8.514331817626953125e+01 8.060881042480468750e+01 9.783415985107421875e+01 1.142456970214843750e+02 1.328577423095703125e+02 1.082569274902343750e+02 9.458650207519531250e+01 7.394778442382812500e+01 4.061061096191406250e+01 6.674459838867187500e+01 6.304864501953125000e+01 7.546701812744140625e+01
0.000000000000000000e+00 0.000000000000000000e+00 0.000000000000000000e+00 0.000000000000000000e+00 0.000000000000000000e+00 0.000000000000000000e+00 0.000000000000000000e+00 0.000000000000000000e+00 0.000000000000000000e+00 0.000000000000000000e+00 0.000000000000000000e+00 0.000000000000000000e+00 0.000000000000000000e+00 0.000000000000000000e+00 0.000000000000000000e+00 0.000000000000000000e+00 0.000000000000000000e+00 0.000000000000000000e+00 0.000000000000000000e+00 0.000000000000000000e+00 0.000000000000000000e+00 0.000000000000000000e+00 0.000000000000000000e+00 0.000000000000000000e+00 0.000000000000000000e+00 9.360939979553222656e+00 1.611222076416015625e+01 2.289329719543457031e+01 3.407091140747070312e+01 5.574930953979492188e+01 8.809781646728515625e+01 1.388454284667968750e+02 1.896217346191406250e+02 2.044311523437500000e+02 2.195865631103515625e+02 2.302328643798828125e+02 2.434627990722656250e+02 2.707926330566406250e+02 2.434248046875000000e+02 2.305547943115234375e+02 2.118619384765625000e+02 1.889351501464843750e+02 2.014408874511718750e+02 1.851544494628906250e+02 1.621651916503906250e+02 1.755796966552734375e+02 1.834396209716796875e+02 1.927615814208984375e+02 1.943372955322265625e+02 1.961910858154296875e+02 1.714548034667968750e+02 1.693103942871093750e+02 2.292665863037109375e+02 2.491509094238281250e+02 2.373293609619140625e+02 2.013440246582031250e+02 2.599939270019531250e+02 2.569388122558593750e+02 2.545629119873046875e+02 1.999358367919921875e+02 2.406449127197265625e+02 1.854460754394531250e+02 2.396813659667968750e+02 2.073976287841796875e+02 2.269877624511718750e+02 2.523389587402343750e+02 2.859703369140625000e+02 3.202997436523437500e+02 2.782189331054687500e+02 2.533957214355468750e+02 2.292681121826171875e+02 2.192143707275390625e+02 2.270458068847656250e+02 2.223589172363281250e+02 2.694169616699218750e+02 2.413183898925781250e+02 3.028120117187500000e+02 2.968475646972656250e+02 3.487003173828125000e+02 3.169423217773437500e+02 3.346906738281250000e+02 2.807968750000000000e+02 3.370347900390625000e+02 3.082155151367187500e+02 2.559896850585937500e+02 2.432074584960937500e+02 2.035872497558593750e+02 2.433993988037109375e+02 2.371938629150390625e+02 2.396659698486328125e+02 2.147036285400390625e+02 2.126342010498046875e+02 1.752450561523437500e+02 1.896084442138671875e+02 1.560008850097656250e+02 1.332393035888671875e+02 1.268184127807617188e+02 1.782608642578125000e+02 1.862344665527343750e+02 1.628378601074218750e+02 1.420094604492187500e+02 1.202107925415039062e+02 1.149147491455078125e+02 1.020040893554687500e+02 9.261573791503906250e+01 9.470750427246093750e+01 1.161216506958007812e+02 1.294362030029296875e+02 1.014371261596679688e+02 7.268925476074218750e+01 8.854137420654296875e+01 1.138569488525390625e+02 1.240757293701171875e+02 1.181079483032226562e+02 1.078436431884765625e+02 4.703004455566406250e+01 6.912670135498046875e+01 1.015977783203125000e+02 9.756031036376953125e+01
0.000000000000000000e+00 0.000000000000000000e+00 0.000000000000000000e+00 0.000000000000000000e+00 0.000000000000000000e+00 0.000000000000000000e+00 0.000000000000000000e+00 0.000000000000000000e+00 0.000000000000000000e+00 0.000000000000000000e+00 0.000000000000000000e+00 0.000000000000000000e+00 0.000000000000000000e+00 0.000000000000000000e+00 0.000000000000000000e+00 0.000000000000000000e+00 0.000000000000000000e+00 0.000000000000000000e+00 0.000000000000000000e+00 0.000000000000000000e+00 0.000000000000000000e+00 0.000000000000000000e+00 0.000000000000000000e+00 0.000000000000000000e+00 0.000000000000000000e+00 5.519277095794677734e+00 1.432205581665039062e+01 2.068099212646484375e+01 3.186019897460937500e+01 4.478638458251953125e+01 8.215110778808593750e+01 1.651942138671875000e+02 1.789139404296875000e+02 1.944573822021484375e+02 2.140469207763671875e+02 2.285942687988281250e+02 2.487283020019531250e+02 2.848241577148437500e+02 2.741404113769531250e+02 2.489621887207031250e+02 2.354066162109375000e+02 1.904799804687500000e+02 2.286541290283203125e+02 2.156016540527343750e+02 1.828910217285156250e+02 1.932222747802734375e+02 2.128544311523437500e+02 2.120696411132812500e+02 2.225991210937500000e+02 2.292390441894531250e+02 2.393978881835937500e+02 2.107513122558593750e+02 2.018263549804687500e+02 2.465122375488281250e+02 2.528968963623046875e+02 2.140560760498046875e+02 2.481013183593750000e+02 2.681587219238281250e+02 2.352826232910156250e+02 2.077199859619140625e+02 2.726793212890625000e+02 2.151520080566406250e+02 2.308943176269531250e+02 2.439820251464843750e+02 2.205835876464843750e+02 2.803517150878906250e+02 3.098356628417968750e+02 3.275550537109375000e+02 2.758648681640625000e+02 2.825376281738281250e+02 2.259234771728515625e+02 2.226499938964843750e+02 2.539258728027343750e+02 2.380672912597656250e+02 2.628188171386718750e+02 2.394899597167968750e+02 2.900454711914062500e+02 3.336758422851562500e+02 3.473405761718750000e+02 3.791930541992187500e+02 3.243395996093750000e+02 2.965685424804687500e+02 3.006184082031250000e+02 2.833485717773437500e+02 2.500655822753906250e+02 2.091292266845703125e+02 1.956576080322265625e+02 2.116865386962890625e+02 2.199751129150390625e+02 2.120824584960937500e+02 1.988131103515625000e+02 1.943045959472656250e+02 1.538997650146484375e+02 1.509979095458984375e+02 1.246668167114257812e+02 1.276795959472656250e+02 1.655077667236328125e+02 1.995638275146484375e+02 1.685178833007812500e+02 1.569675292968750000e+02 1.326603851318359375e+02 1.138512802124023438e+02 9.949629211425781250e+01 9.771947479248046875e+01 1.022874908447265625e+02 1.179418563842773438e+02 1.430098114013671875e+02 1.201616210937500000e+02 9.184277343750000000e+01 8.641870117187500000e+01 6.845279693603515625e+01 8.605331420898437500e+01 1.074948501586914062e+02 9.850939178466796875e+01 8.896542358398437500e+01 5.453999710083007812e+01 6.362608718872070312e+01 1.170022125244140625e+02 1.153796997070312500e+02
0.000000000000000000e+00 0.000000000000000000e+00 0.000000000000000000e+00 0.000000000000000000e+00 0.000000000000000000e+00 0.000000000000000000e+00 0.000000000000000000e+00 0.000000000000000000e+00 0.000000000000000000e+00 0.000000000000000000e+00 0.000000000000000000e+00 0.000000000000000000e+00 0.000000000000000000e+00 0.000000000000000000e+00 0.000000000000000000e+00 0.000000000000000000e+00 0.000000000000000000e+00 0.000000000000000000e+00 0.000000000000000000e+00 0.000000000000000000e+00 0.000000000000000000e+00 0.000000000000000000e+00 0.000000000000000000e+00 0.000000000000000000e+00 0.000000000000000000e+00 0.000000000000000000e+00 4.269112110137939453e+00 1.910270309448242188e+01 2.866936111450195312e+01 3.919489288330078125e+01 7.857179260253906250e+01 1.592056884765625000e+02 1.027142868041992188e+02 1.536727142333984375e+02 1.899258728027343750e+02 2.129692382812500000e+02 2.226792755126953125e+02 2.510909118652343750e+02 3.005409240722656250e+02 2.926063232421875000e+02 2.447573394775390625e+02 2.086479034423828125e+02 2.035242156982421875e+02 2.428781738281250000e+02 2.139931030273437500e+02 2.310294494628906250e+02 2.739414978027343750e+02 2.596502075195312500e+02 3.019716796875000000e+02 2.842125244140625000e+02 2.365693359375000000e+02 1.971635894775390625e+02 2.059741363525390625e+02 2.385780181884765625e+02 2.776187133789062500e+02 2.536058959960937500e+02 2.338356628417968750e+02 2.795360107421875000e+02 2.660502624511718750e+02 2.222154846191406250e+02 2.736099243164062500e+02 2.521557617187500000e+02 2.073326568603515625e+02 2.729270324707031250e+02 2.531408691406250000e+02 2.575585327148437500e+02 3.099193115234375000e+02 3.663549194335937500e+02 3.183137512207031250e+02 3.139366455078125000e+02 2.634067382812500000e+02 2.448529815673828125e+02 2.281312408447265625e+02 2.828826293945312500e+02 2.646282043457031250e+02 2.983939514160156250e+02 2.585244140625000000e+02 2.994667968750000000e+02 3.254421386718750000e+02 3.979449462890625000e+02 3.711105957031250000e+02 2.975481567382812500e+02 2.683927001953125000e+02 2.507015075683593750e+02 2.239076995849609375e+02 2.335190277099609375e+02 2.352792663574218750e+02 2.027015533447265625e+02 1.701400451660156250e+02 1.769839172363281250e+02 1.697134857177734375e+02 1.496683654785156250e+02 1.383088073730468750e+02 1.423250885009765625e+02 1.922254638671875000e+02 1.987924194335937500e+02 1.611545104980468750e+02 1.441710968017578125e+02 1.570258178710937500e+02 1.714428100585937500e+02 1.571840515136718750e+02 1.132317504882812500e+02 1.334143066406250000e+02 1.361035003662109375e+02 1.510933685302734375e+02 1.402229003906250000e+02 1.171280975341796875e+02 1.428587036132812500e+02 1.399822845458984375e+02 1.194081192016601562e+02 1.116145019531250000e+02 6.612432098388671875e+01 6.165528488159179688e+01 5.863623809814453125e+01 5.348812866210937500e+01 5.365290832519531250e+01 1.039151687622070312e+02 1.281811676025390625e+02 1.303731842041015625e+02
