0.000000000000000000e+00 0.000000000000000000e+00 0.000000000000000000e+00 0.000000000000000000e+00 0.000000000000000000e+00 0.000000000000000000e+00 0.000000000000000000e+00 0.000000000000000000e+00 0.000000000000000000e+00 0.000000000000000000e+00 0.000000000000000000e+00 0.000000000000000000e+00 0.000000000000000000e+00 0.000000000000000000e+00 1.978760242462158203e+00 1.654057693481445312e+01 9.774907684326171875e+01 1.323597106933593750e+02 1.315112152099609375e+02 1.337292480468750000e+02 1.344451751708984375e+02 1.390215759277343750e+02 1.385951690673828125e+02 1.386494140625000000e+02 1.403614807128906250e+02 1.366844940185546875e+02 1.316678009033203125e+02 1.126661300659179688e+02 1.345226593017578125e+02 1.361120910644531250e+02 1.339095458984375000e+02 1.275466384887695312e+02 1.334336547851562500e+02 9.257994079589843750e+01 1.365672607421875000e+02 1.479827270507812500e+02 1.485835723876953125e+02 1.534583740234375000e+02 1.212694549560546875e+02 1.018754425048828125e+02 1.251158447265625000e+02 1.552366485595703125e+02 1.564037017822265625e+02 1.575602722167968750e+02 1.397741851806640625e+02 1.257888946533203125e+02 1.447487945556640625e+02 1.554247589111328125e+02 1.377062835693359375e+02 1.679801483154296875e+02 1.445343933105468750e+02 1.600861206054687500e+02 1.810800170898437500e+02 1.784411621093750000e+02 2.087183532714843750e+02 2.090003662109375000e+02 1.518138732910156250e+02 1.238556060791015625e+02 1.468365173339843750e+02 1.896651611328125000e+02 2.363038024902343750e+02 2.523436889648437500e+02 2.346595458984375000e+02 2.446494140625000000e+02 2.253341522216796875e+02 2.487019958496093750e+02 2.583038024902343750e+02 2.736426086425781250e+02 2.630863342285156250e+02 2.314551086425781250e+02 2.412862854003906250e+02 2.103933105468750000e+02 2.096450347900390625e+02 2.047989196777343750e+02 1.849519958496093750e+02 1.529613037109375000e+02 1.011374969482421875e+02 7.089038848876953125e+01 1.185154266357421875e+02 1.486323242187500000e+02 1.770517883300781250e+02 1.514863281250000000e+02 1.249717788696289062e+02 1.187159423828125000e+02 1.002093429565429688e+02 9.519725036621093750e+01 1.002340850830078125e+02 8.458824920654296875e+01 6.890277862548828125e+01 5.257270050048828125e+01 1.199442386627197266e+01 5.070000886917114258e-02 0.000000000000000000e+00 0.000000000000000000e+00 0.000000000000000000e+00 0.000000000000000000e+00 0.000000000000000000e+00 0.000000000000000000e+00 0.000000000000000000e+00 0.000000000000000000e+00 0.000000000000000000e+00 0.000000000000000000e+00 0.000000000000000000e+00 0.000000000000000000e+00 0.000000000000000000e+00 0.000000000000000000e+00 0.000000000000000000e+00 0.000000000000000000e+00 0.000000000000000000e+00 0.000000000000000000e+00 0.000000000000000000e+00
0.000000000000000000e+00 0.000000000000000000e+00 0.000000000000000000e+00 0.000000000000000000e+00 0.000000000000000000e+00 0.000000000000000000e+00 0.000000000000000000e+00 0.000000000000000000e+00 0.000000000000000000e+00 0.000000000000000000e+00 0.000000000000000000e+00 0.000000000000000000e+00 0.000000000000000000e+00 0.000000000000000000e+00 2.405391335487365723e-01 1.162000083923339844e+01 9.043638610839843750e+01 1.405558624267578125e+02 1.380777587890625000e+02 1.389850463867187500e+02 1.444379272460937500e+02 1.470389099121093750e+02 1.489812927246093750e+02 1.501919555664062500e+02 1.527568206787109375e+02 1.463809661865234375e+02 1.396012878417968750e+02 1.245418243408203125e+02 1.403810272216796875e+02 1.487247619628906250e+02 1.500936279296875000e+02 1.427545776367187500e+02 1.484704895019531250e+02 1.183367767333984375e+02 1.417948760986328125e+02 1.479325866699218750e+02 1.596872253417968750e+02 1.632319641113281250e+02 1.509646301269531250e+02 1.497914123535156250e+02 1.148738174438476562e+02 1.191215286254882812e+02 1.506398315429687500e+02 1.704810638427734375e+02 1.594544677734375000e+02 1.371449127197265625e+02 1.440218353271484375e+02 1.602017822265625000e+02 1.436424713134765625e+02 1.699547729492187500e+02 1.737951965332031250e+02 1.433576354980468750e+02 1.801129455566406250e+02 1.915359497070312500e+02 2.128194427490234375e+02 2.353486022949218750e+02 1.917217864990234375e+02 1.340077056884765625e+02 1.798810729980468750e+02 1.568452758789062500e+02 1.587700958251953125e+02 2.259812927246093750e+02 2.499325561523437500e+02 2.511987915039062500e+02 2.370847778320312500e+02 2.644402770996093750e+02 3.002309570312500000e+02 3.130916748046875000e+02 3.044306640625000000e+02 2.903754577636718750e+02 2.840262451171875000e+02 2.561666564941406250e+02 2.538758544921875000e+02 2.347498779296875000e+02 1.978225402832031250e+02 1.727374572753906250e+02 1.379917297363281250e+02 9.645228576660156250e+01 1.573439941406250000e+02 1.846074066162109375e+02 1.948902130126953125e+02 1.952778015136718750e+02 1.815222015380859375e+02 1.765314941406250000e+02 1.688506622314453125e+02 1.525487365722656250e+02 1.483474731445312500e+02 1.377977752685546875e+02 1.262032089233398438e+02 1.038484878540039062e+02 2.816556739807128906e+01 2.665920972824096680e+00 0.000000000000000000e+00 0.000000000000000000e+00 0.000000000000000000e+00 0.000000000000000000e+00 6.041966080665588379e-01 3.694298267364501953e+00 2.178157424926757812e+01 1.847426605224609375e+01 1.186453056335449219e+01 1.170998096466064453e+01 9.239526748657226562e+00 1.812321066856384277e+00 0.000000000000000000e+00 0.000000000000000000e+00 0.000000000000000000e+00 0.000000000000000000e+00 0.000000000000000000e+00 0.000000000000000000e+00 0.000000000000000000e+00
0.000000000000000000e+00 0.000000000000000000e+00 0.000000000000000000e+00 0.000000000000000000e+00 0.000000000000000000e+00 0.000000000000000000e+00 0.000000000000000000e+00 0.000000000000000000e+00 0.000000000000000000e+00 0.000000000000000000e+00 0.000000000000000000e+00 0.000000000000000000e+00 0.000000000000000000e+00 0.000000000000000000e+00 0.000000000000000000e+00 3.126800775527954102e+00 4.034550476074218750e+01 7.611267852783203125e+01 1.286946716308593750e+02 1.423661499023437500e+02 1.450477600097656250e+02 1.534330749511718750e+02 1.568443908691406250e+02 1.589178771972656250e+02 1.626008300781250000e+02 1.548079376220703125e+02 1.524883575439453125e+02 1.397915344238281250e+02 1.405214996337890625e+02 1.520765991210937500e+02 1.605141754150390625e+02 1.530788269042968750e+02 1.576740264892578125e+02 1.608196716308593750e+02 1.248980255126953125e+02 1.536598663330078125e+02 1.623145446777343750e+02 1.683442077636718750e+02 1.688156890869140625e+02 1.624247436523437500e+02 1.523741607666015625e+02 1.269439620971679688e+02 1.214289932250976562e+02 1.544746551513671875e+02 1.761911315917968750e+02 1.559726257324218750e+02 1.565420532226562500e+02 1.737412567138671875e+02 1.631677093505859375e+02 1.652152099609375000e+02 1.922048187255859375e+02 1.794275970458984375e+02 1.601315765380859375e+02 2.222929382324218750e+02 2.325485076904296875e+02 2.403531188964843750e+02 1.865287170410156250e+02 1.443906402587890625e+02 2.191109924316406250e+02 2.320786743164062500e+02 1.835024414062500000e+02 1.772284851074218750e+02 2.772766723632812500e+02 2.625007629394531250e+02 2.825037536621093750e+02 2.913973388671875000e+02 3.474911804199218750e+02 3.601430358886718750e+02 3.423475952148437500e+02 3.174498596191406250e+02 3.138908081054687500e+02 2.797292785644531250e+02 2.674508666992187500e+02 2.522127685546875000e+02 2.247220001220703125e+02 1.947848663330078125e+02 1.510847320556640625e+02 1.037687530517578125e+02 1.602737274169921875e+02 1.703100891113281250e+02 1.577995910644531250e+02 1.599082031250000000e+02 1.460386962890625000e+02 1.370095672607421875e+02 1.240935668945312500e+02 1.191256713867187500e+02 1.142135925292968750e+02 1.060449447631835938e+02 1.052392425537109375e+02 1.059009017944335938e+02 5.108355331420898438e+01 3.444103240966796875e+01 2.148177146911621094e+01 1.986915779113769531e+01 1.998899459838867188e+01 2.206962203979492188e+01 2.344939613342285156e+01 2.723473739624023438e+01 3.235597229003906250e+01 5.321716690063476562e+01 4.717316055297851562e+01 3.279689788818359375e+01 1.879027938842773438e+01 2.062655687332153320e+00 0.000000000000000000e+00 0.000000000000000000e+00 0.000000000000000000e+00 0.000000000000000000e+00 0.000000000000000000e+00 0.000000000000000000e+00 0.000000000000000000e+00
0.000000000000000000e+00 0.000000000000000000e+00 0.000000000000000000e+00 0.000000000000000000e+00 0.000000000000000000e+00 0.000000000000000000e+00 0.000000000000000000e+00 0.000000000000000000e+00 0.000000000000000000e+00 0.000000000000000000e+00 0.000000000000000000e+00 0.000000000000000000e+00 0.000000000000000000e+00 0.000000000000000000e+00 0.000000000000000000e+00 0.000000000000000000e+00 6.934498786926269531e+00 2.737736129760742188e+01 6.303374481201171875e+01 1.117343750000000000e+02 1.304999847412109375e+02 1.672289733886718750e+02 1.731765594482421875e+02 1.728205108642578125e+02 1.749280090332031250e+02 1.674760742187500000e+02 1.667168579101562500e+02 1.655338287353515625e+02 1.553723449707031250e+02 1.457639617919921875e+02 1.590050354003906250e+02 1.615612792968750000e+02 1.559254760742187500e+02 1.585985870361328125e+02 1.076508941650390625e+02 1.316563568115234375e+02 1.558622131347656250e+02 1.645709533691406250e+02 1.709442596435546875e+02 1.880410614013671875e+02 1.876669616699218750e+02 1.794285125732421875e+02 1.521245727539062500e+02 1.347784729003906250e+02 1.922525787353515625e+02 1.874969482421875000e+02 1.911326751708984375e+02 1.901073455810546875e+02 1.674597625732421875e+02 1.993328704833984375e+02 2.280216674804687500e+02 2.310240936279296875e+02 2.028994903564453125e+02 2.434979553222656250e+02 2.535033874511718750e+02 1.977407073974609375e+02 1.650766296386718750e+02 1.737492980957031250e+02 2.758521423339843750e+02 2.852922363281250000e+02 2.271592102050781250e+02 1.718166503906250000e+02 3.006300354003906250e+02 3.169453430175781250e+02 3.298980407714843750e+02 3.410989379882812500e+02 3.376910095214843750e+02 3.056563720703125000e+02 2.864015502929687500e+02 2.838273620605468750e+02 2.679133605957031250e+02 2.244979248046875000e+02 2.012240447998046875e+02 1.789896850585937500e+02 1.675133056640625000e+02 1.742442779541015625e+02 1.459191131591796875e+02 1.070010452270507812e+02 9.968476104736328125e+01 1.002988662719726562e+02 1.001484832763671875e+02 1.581714782714843750e+02 1.459413299560546875e+02 1.307330932617187500e+02 1.240350265502929688e+02 1.105023345947265625e+02 1.057105178833007812e+02 1.003586730957031250e+02 9.887619781494140625e+01 9.276176452636718750e+01 6.510691070556640625e+01 5.621403503417968750e+01 5.111070251464843750e+01 4.663857650756835938e+01 6.166596603393554688e+01 7.421523284912109375e+01 6.965571594238281250e+01 6.067435455322265625e+01 5.471953582763671875e+01 5.312480545043945312e+01 5.266129684448242188e+01 4.500542449951171875e+01 2.470954704284667969e+01 4.482246398925781250e+00 0.000000000000000000e+00 0.000000000000000000e+00 0.000000000000000000e+00 0.000000000000000000e+00 0.000000000000000000e+00 0.000000000000000000e+00 0.000000000000000000e+00
0.000000000000000000e+00 0.000000000000000000e+00 0.000000000000000000e+00 0.000000000000000000e+00 0.000000000000000000e+00 0.000000000000000000e+00 0.000000000000000000e+00 0.000000000000000000e+00 0.000000000000000000e+00 0.000000000000000000e+00 0.000000000000000000e+00 0.000000000000000000e+00 0.000000000000000000e+00 0.000000000000000000e+00 0.000000000000000000e+00 0.000000000000000000e+00 0.000000000000000000e+00 4.399432659149169922e+00 1.702552604675292969e+01 3.498447418212890625e+01 5.635343933105468750e+01 1.623507232666015625e+02 1.835187835693359375e+02 1.835023651123046875e+02 1.855920715332031250e+02 1.816811370849609375e+02 1.769721679687500000e+02 1.745397644042968750e+02 1.700082397460937500e+02 1.639391174316406250e+02 1.609529724121093750e+02 1.621455535888671875e+02 1.569843597412109375e+02 1.528880462646484375e+02 1.379282379150390625e+02 1.074906692504882812e+02 1.181644134521484375e+02 1.284243469238281250e+02 1.458068237304687500e+02 1.757856292724609375e+02 1.825505523681640625e+02 1.876504669189453125e+02 1.864618682861328125e+02 1.597670898437500000e+02 1.671376495361328125e+02 1.837489013671875000e+02 2.064908752441406250e+02 2.140020751953125000e+02 2.015901489257812500e+02 1.965061950683593750e+02 2.305343322753906250e+02 2.372667999267578125e+02 2.246129760742187500e+02 2.074453430175781250e+02 2.377395782470703125e+02 1.795600891113281250e+02 2.028937988281250000e+02 2.190528869628906250e+02 2.403226623535156250e+02 2.640563964843750000e+02 2.502605743408203125e+02 1.822714996337890625e+02 2.194098510742187500e+02 2.391475524902343750e+02 2.449785614013671875e+02 2.552462158203125000e+02 2.663645629882812500e+02 2.801504516601562500e+02 2.811645812988281250e+02 2.468302001953125000e+02 2.257313995361328125e+02 2.030790100097656250e+02 1.938998870849609375e+02 2.026486358642578125e+02 1.693698577880859375e+02 1.292558898925781250e+02 1.213421401977539062e+02 1.305319366455078125e+02 1.634082641601562500e+02 1.299791564941406250e+02 1.037613830566406250e+02 1.623605041503906250e+02 1.445934600830078125e+02 1.327092437744140625e+02 1.475005340576171875e+02 1.436838989257812500e+02 1.369584503173828125e+02 1.247741851806640625e+02 1.392574157714843750e+02 1.376768798828125000e+02 9.969313049316406250e+01 8.654078674316406250e+01 6.889568328857421875e+01 5.998030853271484375e+01 4.242792892456054688e+01 6.832086181640625000e+01 8.372443389892578125e+01 8.793092346191406250e+01 7.619175720214843750e+01 5.886550521850585938e+01 4.883581542968750000e+01 3.394943237304687500e+01 1.733334350585937500e+01 5.674101352691650391e+00 0.000000000000000000e+00 0.000000000000000000e+00 0.000000000000000000e+00 0.000000000000000000e+00 0.000000000000000000e+00 0.000000000000000000e+00 0.000000000000000000e+00
0.000000000000000000e+00 0.000000000000000000e+00 0.000000000000000000e+00 0.000000000000000000e+00 0.000000000000000000e+00 0.000000000000000000e+00 0.000000000000000000e+00 0.000000000000000000e+00 0.000000000000000000e+00 0.000000000000000000e+00 0.000000000000000000e+00 0.000000000000000000e+00 0.000000000000000000e+00 0.000000000000000000e+00 0.000000000000000000e+00 0.000000000000000000e+00 0.000000000000000000e+00 0.000000000000000000e+00 0.000000000000000000e+00 2.731350660324096680e+00 1.774494934082031250e+01 9.192538452148437500e+01 1.563157196044921875e+02 1.784539184570312500e+02 1.870222015380859375e+02 1.954624938964843750e+02 1.881168823242187500e+02 1.884277648925781250e+02 1.834073181152343750e+02 1.823864898681640625e+02 1.698402099609375000e+02 1.666278381347656250e+02 1.536005249023437500e+02 1.402596130371093750e+02 1.215382690429687500e+02 1.090749588012695312e+02 1.162006378173828125e+02 1.258785629272460938e+02 1.279511718750000000e+02 1.776526641845703125e+02 1.941549987792968750e+02 1.974257659912109375e+02 2.014716186523437500e+02 1.799418945312500000e+02 1.935543212890625000e+02 1.661378173828125000e+02 1.571105041503906250e+02 1.603847351074218750e+02 1.721984710693359375e+02 1.942230987548828125e+02 2.193527984619140625e+02 2.095571289062500000e+02 2.200618743896484375e+02 2.133768615722656250e+02 2.016353607177734375e+02 1.944714050292968750e+02 1.965717468261718750e+02 2.088139648437500000e+02 2.190093536376953125e+02 2.427687988281250000e+02 2.649165039062500000e+02 2.498793945312500000e+02 2.193458251953125000e+02 2.210594482421875000e+02 2.138489379882812500e+02 2.454770660400390625e+02 2.496764373779296875e+02 2.741070251464843750e+02 3.121842956542968750e+02 2.989967651367187500e+02 2.704992370605468750e+02 2.074814758300781250e+02 1.877333831787109375e+02 1.779382324218750000e+02 1.652906188964843750e+02 1.768926239013671875e+02 1.627490234375000000e+02 1.524713439941406250e+02 1.381758117675781250e+02 1.068094711303710938e+02 1.467712097167968750e+02 1.609619750976562500e+02 1.567064208984375000e+02 1.516937103271484375e+02 1.340818176269531250e+02 1.369119262695312500e+02 1.340269775390625000e+02 1.397240142822265625e+02 1.389302673339843750e+02 1.230159606933593750e+02 1.106734161376953125e+02 9.495668792724609375e+01 6.113636016845703125e+01 4.010472106933593750e+01 3.621152114868164062e+01 3.107895660400390625e+01 5.150703048706054688e+01 7.677124786376953125e+01 9.167132568359375000e+01 7.365875244140625000e+01 5.231003952026367188e+01 3.458254241943359375e+01 1.525779819488525391e+01 4.050687313079833984e+00 0.000000000000000000e+00 0.000000000000000000e+00 0.000000000000000000e+00 0.000000000000000000e+00 0.000000000000000000e+00 0.000000000000000000e+00 0.000000000000000000e+00
0.000000000000000000e+00 0.000000000000000000e+00 0.000000000000000000e+00 0.000000000000000000e+00 0.000000000000000000e+00 0.000000000000000000e+00 0.000000000000000000e+00 0.000000000000000000e+00 0.000000000000000000e+00 0.000000000000000000e+00 0.000000000000000000e+00 0.000000000000000000e+00 0.000000000000000000e+00 0.000000000000000000e+00 0.000000000000000000e+00 0.000000000000000000e+00 0.000000000000000000e+00 0.000000000000000000e+00 0.000000000000000000e+00 0.000000000000000000e+00 5.274305820465087891e+00 3.616346740722656250e+01 7.335768890380859375e+01 1.154232330322265625e+02 1.688227233886718750e+02 1.978437957763671875e+02 1.983702392578125000e+02 1.994467468261718750e+02 2.018307342529296875e+02 2.010750732421875000e+02 1.889628601074218750e+02 1.810365600585937500e+02 1.703087921142578125e+02 1.619391326904296875e+02 1.263995361328125000e+02 1.325951385498046875e+02 1.306203613281250000e+02 1.267158813476562500e+02 1.469719543457031250e+02 1.582988739013671875e+02 1.782515258789062500e+02 1.990900878906250000e+02 2.168349609375000000e+02 1.843345031738281250e+02 2.451148834228515625e+02 2.198907470703125000e+02 2.111083831787109375e+02 1.904063873291015625e+02 1.876000061035156250e+02 1.905223999023437500e+02 2.277216796875000000e+02 2.515211029052734375e+02 2.544481353759765625e+02 2.655670471191406250e+02 2.498537292480468750e+02 2.471232757568359375e+02 2.060187530517578125e+02 2.344623870849609375e+02 2.327351226806640625e+02 2.145230865478515625e+02 2.420661926269531250e+02 2.860605773925781250e+02 2.742239074707031250e+02 2.881562500000000000e+02 2.424923400878906250e+02 2.514057464599609375e+02 3.075373229980468750e+02 3.154479675292968750e+02 3.085396728515625000e+02 3.079051513671875000e+02 2.945670166015625000e+02 2.377861022949218750e+02 2.210970306396484375e+02 2.287466278076171875e+02 2.263647003173828125e+02 2.051279449462890625e+02 1.801887359619140625e+02 1.756045837402343750e+02 1.355155944824218750e+02 1.377507934570312500e+02 1.817354431152343750e+02 1.620350036621093750e+02 1.487339324951171875e+02 1.383249664306640625e+02 1.280322723388671875e+02 1.088423080444335938e+02 1.079044876098632812e+02 1.074745788574218750e+02 1.308629455566406250e+02 1.315392608642578125e+02 8.094820404052734375e+01 6.975448608398437500e+01 4.653828811645507812e+01 4.487567138671875000e+01 6.947289276123046875e+01 3.314010238647460938e+01 2.319252586364746094e+01 3.496399307250976562e+01 5.784253692626953125e+01 8.175430297851562500e+01 6.611631011962890625e+01 3.869519805908203125e+01 1.432799339294433594e+01 3.690837383270263672e+00 0.000000000000000000e+00 0.000000000000000000e+00 0.000000000000000000e+00 0.000000000000000000e+00 0.000000000000000000e+00 0.000000000000000000e+00 0.000000000000000000e+00
0.000000000000000000e+00 0.000000000000000000e+00 0.000000000000000000e+00 0.000000000000000000e+00 0.000000000000000000e+00 0.000000000000000000e+00 0.000000000000000000e+00 0.000000000000000000e+00 0.000000000000000000e+00 0.000000000000000000e+00 0.000000000000000000e+00 0.000000000000000000e+00 0.000000000000000000e+00 0.000000000000000000e+00 0.000000000000000000e+00 0.000000000000000000e+00 0.000000000000000000e+00 0.000000000000000000e+00 0.000000000000000000e+00 0.000000000000000000e+00 1.986758351325988770e+00 2.466648483276367188e+01 3.862101364135742188e+01 6.869520568847656250e+01 1.431060485839843750e+02 1.932548675537109375e+02 2.054275665283203125e+02 2.130306549072265625e+02 2.175230102539062500e+02 2.217365112304687500e+02 2.190231933593750000e+02 2.058313598632812500e+02 1.910319824218750000e+02 1.801114807128906250e+02 1.541962432861328125e+02 1.685167083740234375e+02 1.432948608398437500e+02 1.542599639892578125e+02 1.660649108886718750e+02 1.536332244873046875e+02 1.831665649414062500e+02 1.986063385009765625e+02 2.212537536621093750e+02 2.081353912353515625e+02 2.438465576171875000e+02 2.288102416992187500e+02 2.340614471435546875e+02 2.202757263183593750e+02 2.168751525878906250e+02 2.024637756347656250e+02 2.083207855224609375e+02 2.444496154785156250e+02 2.730359497070312500e+02 3.070759277343750000e+02 2.953272094726562500e+02 2.586757507324218750e+02 2.166886596679687500e+02 2.097409515380859375e+02 2.521734466552734375e+02 2.508732757568359375e+02 2.263591613769531250e+02 2.591315917968750000e+02 3.322262573242187500e+02 3.057955932617187500e+02 2.807260131835937500e+02 2.673446655273437500e+02 3.141304626464843750e+02 3.168615722656250000e+02 2.876211547851562500e+02 2.444682006835937500e+02 2.750080566406250000e+02 2.788761596679687500e+02 2.616454162597656250e+02 2.339222412109375000e+02 2.123511047363281250e+02 2.132311096191406250e+02 1.693786621093750000e+02 1.243627166748046875e+02 1.381094665527343750e+02 1.786013183593750000e+02 1.814187316894531250e+02 1.540879974365234375e+02 1.410099945068359375e+02 1.339966735839843750e+02 1.261072845458984375e+02 9.160427856445312500e+01 8.281058502197265625e+01 8.020930480957031250e+01 9.426080322265625000e+01 1.151647109985351562e+02 1.103979339599609375e+02 9.518750000000000000e+01 7.090589904785156250e+01 4.707384109497070312e+01 7.174256896972656250e+01 7.239144897460937500e+01 4.076345443725585938e+01 1.878884506225585938e+01 2.045456123352050781e+01 4.319137954711914062e+01 5.017107391357421875e+01 3.853751373291015625e+01 1.911179924011230469e+01 6.274741649627685547e+00 0.000000000000000000e+00 0.000000000000000000e+00 0.000000000000000000e+00 0.000000000000000000e+00 0.000000000000000000e+00 0.000000000000000000e+00 0.000000000000000000e+00
0.000000000000000000e+00 0.000000000000000000e+00 0.000000000000000000e+00 0.000000000000000000e+00 0.000000000000000000e+00 0.000000000000000000e+00 0.000000000000000000e+00 0.000000000000000000e+00 0.000000000000000000e+00 0.000000000000000000e+00 0.000000000000000000e+00 0.000000000000000000e+00 0.000000000000000000e+00 0.000000000000000000e+00 0.000000000000000000e+00 0.000000000000000000e+00 0.000000000000000000e+00 0.000000000000000000e+00 0.000000000000000000e+00 0.000000000000000000e+00 3.635074943304061890e-02 2.007202148437500000e+01 2.975938415527343750e+01 4.541324615478515625e+01 7.579473876953125000e+01 1.811819763183593750e+02 1.950993041992187500e+02 2.127925415039062500e+02 2.261497650146484375e+02 2.418967895507812500e+02 2.660008239746093750e+02 2.466206359863281250e+02 2.257365417480468750e+02 2.008175964355468750e+02 2.044279785156250000e+02 1.820882568359375000e+02 1.833307189941406250e+02 1.924421539306640625e+02 1.996431884765625000e+02 2.085038909912109375e+02 2.045349731445312500e+02 1.875091247558593750e+02 2.274284667968750000e+02 2.421965942382812500e+02 2.140445404052734375e+02 2.540713195800781250e+02 2.624042053222656250e+02 2.304756774902343750e+02 2.497177581787109375e+02 1.985057373046875000e+02 2.384128112792968750e+02 2.229361114501953125e+02 2.360797729492187500e+02 3.059783325195312500e+02 3.136589965820312500e+02 2.656025695800781250e+02 2.613227844238281250e+02 2.197449951171875000e+02 2.337561645507812500e+02 2.559501037597656250e+02 2.431479187011718750e+02 2.846418762207031250e+02 3.330991516113281250e+02 3.558168945312500000e+02 3.287850341796875000e+02 3.019783935546875000e+02 3.149819946289062500e+02 2.657420654296875000e+02 2.333107757568359375e+02 2.040561218261718750e+02 2.195548095703125000e+02 2.339970397949218750e+02 2.175657043457031250e+02 2.044339752197265625e+02 1.721000976562500000e+02 1.750866851806640625e+02 1.331623382568359375e+02 1.600527191162109375e+02 1.876591491699218750e+02 1.736067199707031250e+02 1.543801269531250000e+02 1.144130706787109375e+02 1.057206344604492188e+02 9.915664672851562500e+01 9.789001464843750000e+01 1.303101806640625000e+02 1.174662094116210938e+02 9.115019989013671875e+01 7.628341674804687500e+01 8.273612976074218750e+01 1.140069274902343750e+02 1.050555114746093750e+02 8.850816345214843750e+01 5.054051589965820312e+01 8.014375305175781250e+01 9.405601501464843750e+01 9.380635833740234375e+01 5.605630493164062500e+01 2.921380805969238281e+01 1.241882801055908203e+01 1.619764137268066406e+01 1.804178428649902344e+01 9.117608070373535156e+00 5.741900444030761719e+00 1.643248833715915680e-02 0.000000000000000000e+00 0.000000000000000000e+00 0.000000000000000000e+00 0.000000000000000000e+00 0.000000000000000000e+00 0.000000000000000000e+00
0.000000000000000000e+00 0.000000000000000000e+00 0.000000000000000000e+00 0.000000000000000000e+00 0.000000000000000000e+00 0.000000000000000000e+00 0.000000000000000000e+00 0.000000000000000000e+00 0.000000000000000000e+00 0.000000000000000000e+00 0.000000000000000000e+00 0.000000000000000000e+00 0.000000000000000000e+00 0.000000000000000000e+00 0.000000000000000000e+00 0.000000000000000000e+00 0.000000000000000000e+00 0.000000000000000000e+00 0.000000000000000000e+00 0.000000000000000000e+00 0.000000000000000000e+00 1.809570884704589844e+01 2.793153953552246094e+01 3.852064132690429688e+01 6.875964355468750000e+01 1.401973114013671875e+02 1.500653991699218750e+02 1.895950927734375000e+02 2.112431945800781250e+02 2.273964538574218750e+02 2.920573120117187500e+02 2.900193786621093750e+02 2.605226135253906250e+02 2.150743713378906250e+02 2.408589477539062500e+02 2.029301757812500000e+02 2.234223632812500000e+02 2.449238281250000000e+02 2.519325103759765625e+02 2.719085998535156250e+02 2.434293365478515625e+02 2.008882751464843750e+02 2.149368591308593750e+02 2.596081848144531250e+02 2.321529693603515625e+02 2.491722717285156250e+02 2.845529785156250000e+02 2.518771667480468750e+02 2.853571166992187500e+02 2.291206970214843750e+02 2.297334442138671875e+02 2.734852905273437500e+02 2.345278625488281250e+02 3.290652465820312500e+02 3.456707153320312500e+02 3.147817993164062500e+02 2.928174438476562500e+02 2.582708435058593750e+02 2.676796569824218750e+02 2.606635437011718750e+02 2.793943176269531250e+02 2.622850952148437500e+02 3.320652465820312500e+02 3.869246826171875000e+02 3.629828796386718750e+02 3.226443786621093750e+02 2.887890014648437500e+02 2.383115692138671875e+02 2.238833465576171875e+02 2.266310119628906250e+02 2.046812438964843750e+02 1.907566528320312500e+02 1.937602539062500000e+02 1.552638244628906250e+02 1.398351135253906250e+02 1.355833435058593750e+02 1.862089843750000000e+02 1.704616699218750000e+02 1.679295349121093750e+02 1.674101409912109375e+02 1.621373443603515625e+02 1.083284454345703125e+02 1.270139923095703125e+02 1.287462310791015625e+02 1.374942932128906250e+02 1.219981765747070312e+02 1.294134216308593750e+02 1.320553283691406250e+02 1.139042663574218750e+02 8.454910278320312500e+01 6.871000671386718750e+01 6.631832885742187500e+01 5.930288696289062500e+01 5.605180740356445312e+01 1.000177307128906250e+02 1.108834838867187500e+02 9.435664367675781250e+01 8.673287963867187500e+01 6.968705749511718750e+01 1.401660156250000000e+01 8.419500350952148438e+00 7.193192481994628906e+00 6.060643672943115234e+00 3.387146472930908203e+00 0.000000000000000000e+00 0.000000000000000000e+00 0.000000000000000000e+00 0.000000000000000000e+00 0.000000000000000000e+00 0.000000000000000000e+00 0.000000000000000000e+00
0.000000000000000000e+00 0.000000000000000000e+00 0.000000000000000000e+00 0.000000000000000000e+00 0.000000000000000000e+00 0.000000000000000000e+00 0.000000000000000000e+00 0.000000000000000000e+00 0.000000000000000000e+00 0.000000000000000000e+00 0.000000000000000000e+00 0.000000000000000000e+00 0.000000000000000000e+00 0.000000000000000000e+00 0.000000000000000000e+00 0.000000000000000000e+00 0.000000000000000000e+00 0.000000000000000000e+00 0.000000000000000000e+00 0.000000000000000000e+00 0.000000000000000000e+00 9.330357551574707031e+00 2.013306236267089844e+01 3.089100646972656250e+01 6.497385406494140625e+01 9.853654479980468750e+01 9.264500427246093750e+01 1.201280288696289062e+02 1.819064483642578125e+02 2.176413269042968750e+02 2.798159484863281250e+02 2.999903869628906250e+02 2.870136413574218750e+02 2.531226806640625000e+02 2.231230010986328125e+02 2.371720581054687500e+02 2.437340545654296875e+02 2.595800170898437500e+02 2.963330688476562500e+02 2.590335998535156250e+02 2.378021545410156250e+02 2.356388244628906250e+02 2.406032409667968750e+02 2.554797668457031250e+02 2.628735046386718750e+02 2.334766387939453125e+02 2.798183593750000000e+02 2.647994689941406250e+02 3.049048767089843750e+02 2.502179107666015625e+02 2.331030883789062500e+02 3.178101806640625000e+02 2.858862304687500000e+02 3.176848449707031250e+02 3.531855163574218750e+02 3.627268676757812500e+02 3.190823059082031250e+02 3.029421386718750000e+02 2.566078186035156250e+02 2.860906372070312500e+02 2.889152526855468750e+02 3.159402465820312500e+02 3.402301940917968750e+02 3.618684692382812500e+02 3.303629455566406250e+02 2.938654479980468750e+02 2.750308532714843750e+02 2.655042724609375000e+02 2.711621093750000000e+02 2.631337585449218750e+02 2.442254943847656250e+02 1.940502319335937500e+02 1.584513854980468750e+02 1.529106903076171875e+02 1.728329772949218750e+02 1.926511230468750000e+02 1.840892333984375000e+02 1.729679412841796875e+02 1.581547241210937500e+02 1.402612609863281250e+02 1.270672912597656250e+02 1.235444335937500000e+02 1.335994262695312500e+02 1.638441314697265625e+02 1.496898193359375000e+02 1.394299621582031250e+02 1.223453979492187500e+02 9.936524200439453125e+01 9.124402618408203125e+01 8.251574707031250000e+01 8.589939117431640625e+01 7.612099456787109375e+01 7.918964385986328125e+01 8.458628845214843750e+01 1.222754440307617188e+02 1.254905395507812500e+02 1.039419021606445312e+02 7.961904907226562500e+01 7.360917663574218750e+01 6.574922180175781250e+01 4.715196990966796875e+01 3.061876106262207031e+01 1.220257377624511719e+01 6.284804344177246094e+00 4.544568061828613281e-01 0.000000000000000000e+00 0.000000000000000000e+00 0.000000000000000000e+00 0.000000000000000000e+00 0.000000000000000000e+00 0.000000000000000000e+00
0.000000000000000000e+00 0.000000000000000000e+00 0.000000000000000000e+00 0.000000000000000000e+00 0.000000000000000000e+00 0.000000000000000000e+00 0.000000000000000000e+00 0.000000000000000000e+00 0.000000000000000000e+00 0.000000000000000000e+00 0.000000000000000000e+00 0.000000000000000000e+00 0.000000000000000000e+00 0.000000000000000000e+00 0.000000000000000000e+00 0.000000000000000000e+00 0.000000000000000000e+00 0.000000000000000000e+00 0.000000000000000000e+00 0.000000000000000000e+00 0.000000000000000000e+00 5.804787948727607727e-02 1.492674064636230469e+01 2.452233505249023438e+01 4.796385955810546875e+01 8.022279357910156250e+01 1.563786773681640625e+02 1.588579864501953125e+02 1.473641662597656250e+02 1.932160797119140625e+02 2.495070800781250000e+02 2.598007812500000000e+02 2.875649414062500000e+02 3.009106750488281250e+02 2.363870544433593750e+02 2.659134521484375000e+02 2.666255187988281250e+02 2.665766601562500000e+02 2.931611938476562500e+02 2.855498046875000000e+02 2.856090698242187500e+02 2.849950561523437500e+02 2.899625244140625000e+02 2.908466186523437500e+02 2.946488647460937500e+02 2.484687347412109375e+02 2.862959289550781250e+02 2.939472351074218750e+02 3.294266967773437500e+02 2.661330566406250000e+02 2.255012512207031250e+02 2.802227783203125000e+02 3.270460815429687500e+02 2.913915100097656250e+02 3.011599121093750000e+02 3.436838378906250000e+02 3.665406188964843750e+02 3.590141601562500000e+02 2.690989074707031250e+02 3.091056518554687500e+02 2.971654357910156250e+02 3.165031433105468750e+02 3.217809448242187500e+02 3.605447692871093750e+02 3.494548645019531250e+02 3.286810913085937500e+02 3.230865478515625000e+02 3.065293579101562500e+02 3.030846557617187500e+02 2.972258911132812500e+02 2.959538879394531250e+02 1.979291992187500000e+02 1.861707916259765625e+02 1.858758392333984375e+02 2.317645721435546875e+02 2.321888122558593750e+02 1.739810180664062500e+02 1.987300415039062500e+02 1.757280273437500000e+02 1.527269897460937500e+02 1.434895782470703125e+02 1.499412841796875000e+02 1.267490005493164062e+02 1.629772338867187500e+02 1.498402404785156250e+02 1.105036621093750000e+02 1.210094375610351562e+02 1.199648666381835938e+02 1.093660507202148438e+02 8.791964721679687500e+01 1.024892883300781250e+02 1.247758483886718750e+02 1.181574478149414062e+02 1.121995162963867188e+02 1.267811965942382812e+02 1.302428588867187500e+02 1.053650665283203125e+02 7.365433502197265625e+01 5.346528625488281250e+01 7.642620849609375000e+01 8.090537261962890625e+01 5.033924102783203125e+01 2.097023773193359375e+01 9.820472717285156250e+00 4.076439738273620605e-01 0.000000000000000000e+00 0.000000000000000000e+00 0.000000000000000000e+00 0.000000000000000000e+00 0.000000000000000000e+00 0.000000000000000000e+00
0.000000000000000000e+00 0.000000000000000000e+00 0.000000000000000000e+00 0.000000000000000000e+00 0.000000000000000000e+00 0.000000000000000000e+00 0.000000000000000000e+00 0.000000000000000000e+00 0.000000000000000000e+00 0.000000000000000000e+00 0.000000000000000000e+00 0.000000000000000000e+00 0.000000000000000000e+00 0.000000000000000000e+00 0.000000000000000000e+00 0.000000000000000000e+00 0.000000000000000000e+00 0.000000000000000000e+00 0.000000000000000000e+00 0.000000000000000000e+00 0.000000000000000000e+00 0.000000000000000000e+00 6.774441719055175781e+00 2.200795936584472656e+01 3.124169158935546875e+01 8.364989471435546875e+01 1.577506256103515625e+02 1.995893249511718750e+02 2.005375976562500000e+02 1.699190368652343750e+02 2.090033416748046875e+02 2.166417236328125000e+02 2.432587280273437500e+02 2.788717651367187500e+02 2.675331420898437500e+02 2.590984497070312500e+02 2.895704956054687500e+02 2.793640441894531250e+02 2.887208557128906250e+02 3.318548278808593750e+02 3.486075439453125000e+02 3.489318237304687500e+02 3.477005615234375000e+02 3.474409790039062500e+02 3.395071105957031250e+02 2.885298767089843750e+02 2.662446899414062500e+02 3.195048828125000000e+02 3.481353454589843750e+02 2.998002624511718750e+02 2.602117309570312500e+02 2.384514923095703125e+02 2.665606079101562500e+02 3.430436401367187500e+02 3.530211486816406250e+02 3.274688720703125000e+02 3.656679077148437500e+02 3.724354858398437500e+02 2.901688537597656250e+02 2.918143615722656250e+02 3.366678161621093750e+02 3.301695861816406250e+02 3.656052551269531250e+02 3.514872741699218750e+02 3.305838317871093750e+02 3.149830322265625000e+02 3.258332519531250000e+02 3.128977661132812500e+02 2.715574951171875000e+02 2.524998474121093750e+02 2.573020629882812500e+02 1.889440307617187500e+02 2.269214019775390625e+02 2.328466796875000000e+02 2.547724456787109375e+02 2.140909881591796875e+02 2.192425994873046875e+02 2.198267211914062500e+02 1.960188140869140625e+02 1.822379760742187500e+02 1.609167480468750000e+02 1.350084228515625000e+02 1.510251770019531250e+02 1.665397796630859375e+02 1.442525482177734375e+02 1.321926879882812500e+02 1.168746185302734375e+02 1.007713928222656250e+02 9.946980285644531250e+01 1.060868988037109375e+02 1.358173828125000000e+02 1.258544464111328125e+02 1.365440826416015625e+02 1.333728485107421875e+02 1.181867599487304688e+02 8.959980773925781250e+01 9.645498657226562500e+01 6.172214889526367188e+01 7.969980621337890625e+01 3.611523056030273438e+01 4.475393295288085938e+01 3.587427520751953125e+01 2.204202270507812500e+01 7.357097148895263672e+00 2.115441299974918365e-02 0.000000000000000000e+00 0.000000000000000000e+00 0.000000000000000000e+00 0.000000000000000000e+00 0.000000000000000000e+00 0.000000000000000000e+00
0.000000000000000000e+00 0.000000000000000000e+00 0.000000000000000000e+00 0.000000000000000000e+00 0.000000000000000000e+00 0.000000000000000000e+00 0.000000000000000000e+00 0.000000000000000000e+00 0.000000000000000000e+00 0.000000000000000000e+00 0.000000000000000000e+00 0.000000000000000000e+00 0.000000000000000000e+00 0.000000000000000000e+00 0.000000000000000000e+00 0.000000000000000000e+00 0.000000000000000000e+00 0.000000000000000000e+00 0.000000000000000000e+00 0.000000000000000000e+00 0.000000000000000000e+00 0.000000000000000000e+00 8.758298158645629883e-01 1.967650604248046875e+01 2.991439819335937500e+01 6.901698303222656250e+01 1.413784942626953125e+02 1.830800933837890625e+02 1.985466918945312500e+02 1.972134552001953125e+02 1.967051849365234375e+02 2.072164916992187500e+02 2.136052551269531250e+02 2.237492370605468750e+02 2.774529418945312500e+02 2.690784912109375000e+02 2.791031494140625000e+02 2.962458496093750000e+02 2.998574523925781250e+02 3.608255615234375000e+02 3.774978637695312500e+02 3.460697631835937500e+02 3.686426086425781250e+02 3.957242736816406250e+02 3.800959777832031250e+02 3.507028198242187500e+02 2.963347167968750000e+02 2.938357849121093750e+02 3.783319702148437500e+02 3.378233337402343750e+02 2.857448120117187500e+02 2.495229797363281250e+02 3.005145568847656250e+02 3.168768615722656250e+02 3.745240478515625000e+02 3.820249938964843750e+02 3.576325378417968750e+02 3.847983398437500000e+02 3.336099853515625000e+02 3.270053710937500000e+02 3.217771911621093750e+02 3.680639648437500000e+02 3.770675048828125000e+02 3.531962585449218750e+02 3.302797241210937500e+02 2.909592590332031250e+02 2.692398071289062500e+02 2.403504943847656250e+02 2.272171325683593750e+02 2.215028228759765625e+02 2.038002929687500000e+02 2.257312469482421875e+02 2.658403015136718750e+02 2.796811218261718750e+02 2.673153076171875000e+02 2.290404968261718750e+02 2.699669494628906250e+02 2.411462097167968750e+02 2.111340942382812500e+02 1.712574615478515625e+02 1.619765167236328125e+02 1.460922088623046875e+02 1.671671447753906250e+02 1.544407348632812500e+02 1.541837158203125000e+02 1.484117736816406250e+02 1.429071197509765625e+02 1.250604629516601562e+02 1.182492370605468750e+02 1.040984954833984375e+02 1.503509063720703125e+02 1.390024566650390625e+02 1.264527893066406250e+02 1.138783264160156250e+02 9.735330963134765625e+01 9.111347961425781250e+01 8.508583831787109375e+01 8.145957946777343750e+01 1.075799331665039062e+02 6.559454345703125000e+01 4.785943222045898438e+01 5.132173538208007812e+01 3.092522621154785156e+01 2.632104110717773438e+01 1.397291946411132812e+01 8.567568778991699219e+00 1.344878315925598145e+00 0.000000000000000000e+00 0.000000000000000000e+00 0.000000000000000000e+00 0.000000000000000000e+00
0.000000000000000000e+00 0.000000000000000000e+00 0.000000000000000000e+00 0.000000000000000000e+00 0.000000000000000000e+00 0.000000000000000000e+00 0.000000000000000000e+00 0.000000000000000000e+00 0.000000000000000000e+00 0.000000000000000000e+00 0.000000000000000000e+00 0.000000000000000000e+00 0.000000000000000000e+00 0.000000000000000000e+00 0.000000000000000000e+00 0.000000000000000000e+00 0.000000000000000000e+00 0.000000000000000000e+00 0.000000000000000000e+00 0.000000000000000000e+00 0.000000000000000000e+00 0.000000000000000000e+00 6.996713578701019287e-02 8.994019508361816406e+00 2.151814651489257812e+01 4.093703079223632812e+01 9.539919281005859375e+01 1.621919860839843750e+02 1.634731292724609375e+02 1.694744720458984375e+02 2.092551422119140625e+02 2.192496795654296875e+02 2.335782623291015625e+02 2.599395141601562500e+02 2.581869506835937500e+02 2.493249053955078125e+02 2.649905700683593750e+02 2.770290527343750000e+02 2.782304077148437500e+02 3.033068847656250000e+02 3.138321228027343750e+02 3.600826416015625000e+02 4.088687744140625000e+02 4.311500244140625000e+02 4.204505920410156250e+02 3.985422363281250000e+02 3.489091796875000000e+02 3.036704101562500000e+02 3.936187133789062500e+02 3.440574340820312500e+02 2.848532714843750000e+02 2.832577514648437500e+02 2.928884887695312500e+02 3.268171691894531250e+02 3.643450012207031250e+02 4.162524108886718750e+02 4.115136718750000000e+02 4.184593200683593750e+02 3.898504638671875000e+02 3.772524719238281250e+02 3.583041381835937500e+02 3.769952697753906250e+02 3.355921020507812500e+02 3.526405944824218750e+02 3.528428649902343750e+02 3.260874023437500000e+02 3.221129455566406250e+02 2.745804443359375000e+02 2.905176086425781250e+02 2.720833435058593750e+02 2.559354553222656250e+02 2.397729187011718750e+02 2.707954711914062500e+02 3.152492065429687500e+02 2.736631469726562500e+02 2.700489807128906250e+02 2.577273559570312500e+02 2.255723266601562500e+02 1.871707000732421875e+02 1.809441833496093750e+02 2.110772857666015625e+02 1.461513671875000000e+02 1.961503295898437500e+02 1.896893157958984375e+02 1.819730529785156250e+02 1.694733886718750000e+02 1.866253356933593750e+02 1.590729980468750000e+02 1.478585662841796875e+02 1.228352661132812500e+02 1.490427398681640625e+02 1.219685897827148438e+02 1.173462371826171875e+02 1.158183822631835938e+02 1.275898971557617188e+02 1.243497314453125000e+02 9.847459411621093750e+01 9.287522888183593750e+01 1.311755828857421875e+02 1.091348571777343750e+02 8.184904479980468750e+01 7.624829101562500000e+01 7.174560546875000000e+01 4.111742782592773438e+01 4.506660461425781250e+01 3.374695205688476562e+01 9.355452537536621094e+00 1.832603514194488525e-01 0.000000000000000000e+00 0.000000000000000000e+00 0.000000000000000000e+00
0.000000000000000000e+00 0.000000000000000000e+00 0.000000000000000000e+00 0.000000000000000000e+00 0.000000000000000000e+00 0.000000000000000000e+00 0.000000000000000000e+00 0.000000000000000000e+00 0.000000000000000000e+00 0.000000000000000000e+00 0.000000000000000000e+00 0.000000000000000000e+00 0.000000000000000000e+00 0.000000000000000000e+00 0.000000000000000000e+00 0.000000000000000000e+00 0.000000000000000000e+00 0.000000000000000000e+00 0.000000000000000000e+00 0.000000000000000000e+00 0.000000000000000000e+00 0.000000000000000000e+00 0.000000000000000000e+00 2.134969383478164673e-01 9.986531734466552734e-01 2.149645996093750000e+01 4.520513153076171875e+01 7.873814392089843750e+01 1.099216156005859375e+02 1.369299774169921875e+02 2.018401336669921875e+02 1.903757324218750000e+02 2.101180725097656250e+02 2.239445953369140625e+02 2.788009033203125000e+02 2.980941162109375000e+02 2.707729492187500000e+02 2.771711425781250000e+02 2.881795043945312500e+02 3.233065795898437500e+02 3.379755249023437500e+02 3.567134704589843750e+02 3.454879760742187500e+02 3.744655761718750000e+02 3.602025756835937500e+02 3.868594055175781250e+02 4.117330932617187500e+02 3.710358886718750000e+02 3.598802185058593750e+02 3.599033813476562500e+02 2.964886474609375000e+02 3.067362060546875000e+02 3.521206359863281250e+02 3.808526611328125000e+02 3.696541748046875000e+02 4.193336791992187500e+02 4.498164062500000000e+02 4.448717041015625000e+02 4.294046630859375000e+02 4.212899780273437500e+02 4.110264587402343750e+02 3.992966003417968750e+02 3.210833435058593750e+02 2.941511535644531250e+02 3.318299255371093750e+02 3.441126098632812500e+02 3.387676696777343750e+02 3.531751098632812500e+02 3.433079833984375000e+02 3.026636962890625000e+02 3.266604003906250000e+02 3.040475769042968750e+02 3.291481018066406250e+02 3.372452087402343750e+02 3.066231689453125000e+02 3.121766357421875000e+02 2.273359527587890625e+02 1.984441528320312500e+02 2.016365966796875000e+02 2.283049926757812500e+02 2.204878692626953125e+02 1.564047546386718750e+02 1.855627136230468750e+02 2.343997497558593750e+02 2.235996093750000000e+02 2.356561737060546875e+02 2.272170257568359375e+02 2.097743835449218750e+02 1.833796234130859375e+02 1.594430389404296875e+02 1.711563262939453125e+02 1.545613555908203125e+02 1.338259582519531250e+02 1.330518035888671875e+02 1.526086883544921875e+02 1.372561035156250000e+02 1.206363906860351562e+02 1.097931060791015625e+02 1.352296142578125000e+02 1.499926147460937500e+02 1.232586898803710938e+02 1.090870437622070312e+02 8.285572052001953125e+01 6.801799011230468750e+01 5.517464828491210938e+01 3.333312606811523438e+01 9.987604141235351562e+00 7.033520191907882690e-02 0.000000000000000000e+00 0.000000000000000000e+00 0.000000000000000000e+00
0.000000000000000000e+00 0.000000000000000000e+00 0.000000000000000000e+00 0.000000000000000000e+00 0.000000000000000000e+00 0.000000000000000000e+00 0.000000000000000000e+00 0.000000000000000000e+00 0.000000000000000000e+00 0.000000000000000000e+00 0.000000000000000000e+00 0.000000000000000000e+00 0.000000000000000000e+00 0.000000000000000000e+00 0.000000000000000000e+00 0.000000000000000000e+00 0.000000000000000000e+00 0.000000000000000000e+00 0.000000000000000000e+00 0.000000000000000000e+00 0.000000000000000000e+00 0.000000000000000000e+00 0.000000000000000000e+00 0.000000000000000000e+00 0.000000000000000000e+00 3.365969419479370117e+00 2.052481079101562500e+01 4.183883666992187500e+01 1.100710296630859375e+02 1.751325683593750000e+02 1.766841430664062500e+02 1.953516540527343750e+02 1.962768554687500000e+02 1.964965057373046875e+02 2.749563293457031250e+02 2.968660278320312500e+02 3.024086303710937500e+02 2.776336975097656250e+02 2.924142761230468750e+02 2.702759399414062500e+02 2.829678955078125000e+02 2.913176269531250000e+02 2.943210449218750000e+02 3.045290527343750000e+02 3.807940673828125000e+02 4.031364135742187500e+02 4.294190063476562500e+02 4.204443664550781250e+02 3.692602539062500000e+02 3.842200012207031250e+02 3.233845825195312500e+02 3.144845886230468750e+02 3.680709228515625000e+02 4.297042541503906250e+02 4.262809753417968750e+02 4.456268310546875000e+02 4.079699401855468750e+02 3.966762695312500000e+02 3.837431640625000000e+02 3.669070434570312500e+02 3.834249267578125000e+02 3.924117431640625000e+02 2.837794799804687500e+02 2.781552124023437500e+02 2.644862670898437500e+02 2.779009704589843750e+02 2.844859924316406250e+02 3.449447631835937500e+02 3.536816406250000000e+02 3.583222656250000000e+02 3.571383972167968750e+02 3.461144104003906250e+02 3.395291137695312500e+02 2.866860351562500000e+02 2.516678161621093750e+02 2.708302612304687500e+02 2.389174041748046875e+02 2.489095916748046875e+02 2.609525451660156250e+02 2.413005371093750000e+02 1.946475830078125000e+02 1.923322448730468750e+02 1.844973602294921875e+02 1.951000366210937500e+02 2.392127075195312500e+02 2.819129028320312500e+02 2.767093505859375000e+02 2.476105499267578125e+02 2.101371307373046875e+02 1.815143280029296875e+02 2.013354492187500000e+02 1.794603881835937500e+02 1.755271911621093750e+02 1.710187072753906250e+02 1.833746032714843750e+02 1.654791107177734375e+02 1.583571166992187500e+02 1.514292755126953125e+02 1.398477172851562500e+02 1.627307434082031250e+02 1.534884796142578125e+02 1.328545227050781250e+02 1.059078674316406250e+02 8.381422424316406250e+01 4.714513397216796875e+01 2.656447601318359375e+01 8.590032577514648438e+00 0.000000000000000000e+00 0.000000000000000000e+00 0.000000000000000000e+00 0.000000000000000000e+00
0.000000000000000000e+00 0.000000000000000000e+00 0.000000000000000000e+00 0.000000000000000000e+00 0.000000000000000000e+00 0.000000000000000000e+00 0.000000000000000000e+00 0.000000000000000000e+00 0.000000000000000000e+00 0.000000000000000000e+00 0.000000000000000000e+00 0.000000000000000000e+00 0.000000000000000000e+00 0.000000000000000000e+00 0.000000000000000000e+00 0.000000000000000000e+00 0.000000000000000000e+00 0.000000000000000000e+00 0.000000000000000000e+00 0.000000000000000000e+00 0.000000000000000000e+00 0.000000000000000000e+00 0.000000000000000000e+00 0.000000000000000000e+00 0.000000000000000000e+00 0.000000000000000000e+00 5.843839645385742188e+00 2.581196022033691406e+01 8.489649200439453125e+01 1.287332458496093750e+02 1.714263153076171875e+02 1.736352844238281250e+02 1.700288848876953125e+02 1.945416870117187500e+02 2.367270507812500000e+02 2.664369506835937500e+02 2.567059631347656250e+02 2.275178680419921875e+02 2.238188323974609375e+02 2.666297607421875000e+02 2.747959594726562500e+02 2.825645141601562500e+02 3.030488281250000000e+02 3.269213256835937500e+02 3.209409484863281250e+02 3.382558593750000000e+02 3.636377868652343750e+02 3.641992797851562500e+02 4.165083007812500000e+02 4.206501770019531250e+02 3.673851928710937500e+02 3.686719970703125000e+02 4.208678894042968750e+02 4.501353759765625000e+02 4.226903076171875000e+02 4.014967346191406250e+02 4.055966186523437500e+02 3.607565307617187500e+02 3.288197937011718750e+02 3.062409667968750000e+02 3.225191650390625000e+02 3.748883056640625000e+02 2.715948181152343750e+02 2.517218017578125000e+02 2.514770507812500000e+02 2.294933013916015625e+02 2.388927459716796875e+02 2.714014282226562500e+02 2.833449707031250000e+02 2.975674133300781250e+02 3.146840209960937500e+02 2.802653198242187500e+02 2.625744934082031250e+02 2.203919677734375000e+02 2.000056762695312500e+02 1.991199798583984375e+02 2.335806274414062500e+02 2.440523986816406250e+02 2.826423950195312500e+02 2.444488220214843750e+02 2.380835876464843750e+02 2.122783813476562500e+02 2.354319152832031250e+02 1.943767700195312500e+02 2.051724243164062500e+02 2.715683898925781250e+02 2.954767456054687500e+02 2.485028228759765625e+02 2.208554229736328125e+02 2.302443389892578125e+02 2.095184020996093750e+02 1.771002807617187500e+02 1.887266845703125000e+02 1.812397308349609375e+02 1.774587554931640625e+02 1.500984344482421875e+02 1.367864532470703125e+02 1.281731719970703125e+02 1.297966003417968750e+02 1.112821578979492188e+02 1.281982574462890625e+02 1.249455490112304688e+02 9.989932250976562500e+01 1.012633514404296875e+02 5.705333709716796875e+01 2.966532897949218750e+01 7.325354576110839844e+00 0.000000000000000000e+00 0.000000000000000000e+00 0.000000000000000000e+00 0.000000000000000000e+00
0.000000000000000000e+00 0.000000000000000000e+00 0.000000000000000000e+00 0.000000000000000000e+00 0.000000000000000000e+00 0.000000000000000000e+00 0.000000000000000000e+00 0.000000000000000000e+00 0.000000000000000000e+00 0.000000000000000000e+00 0.000000000000000000e+00 0.000000000000000000e+00 0.000000000000000000e+00 0.000000000000000000e+00 0.000000000000000000e+00 0.000000000000000000e+00 0.000000000000000000e+00 0.000000000000000000e+00 0.000000000000000000e+00 0.000000000000000000e+00 0.000000000000000000e+00 0.000000000000000000e+00 0.000000000000000000e+00 0.000000000000000000e+00 0.000000000000000000e+00 0.000000000000000000e+00 2.288069427013397217e-01 1.501014900207519531e+01 4.528076171875000000e+01 7.288806152343750000e+01 1.150606918334960938e+02 1.306313323974609375e+02 1.693014831542968750e+02 1.790870513916015625e+02 2.059078063964843750e+02 1.967404632568359375e+02 1.903600158691406250e+02 2.188445892333984375e+02 2.530919799804687500e+02 2.322014007568359375e+02 2.185975494384765625e+02 2.255209350585937500e+02 2.481693878173828125e+02 2.533887481689453125e+02 2.678234863281250000e+02 2.777466430664062500e+02 2.928225708007812500e+02 3.246550292968750000e+02 4.002702331542968750e+02 4.299025878906250000e+02 4.198525390625000000e+02 4.456309204101562500e+02 4.469871215820312500e+02 4.227587585449218750e+02 3.802571105957031250e+02 3.541482543945312500e+02 3.798243713378906250e+02 3.325279541015625000e+02 2.768725280761718750e+02 2.494697875976562500e+02 3.448517456054687500e+02 3.791845397949218750e+02 2.621383056640625000e+02 2.311909484863281250e+02 2.143854675292968750e+02 1.957527770996093750e+02 1.894226989746093750e+02 1.989417114257812500e+02 2.495350646972656250e+02 2.264703216552734375e+02 2.530714263916015625e+02 2.706432495117187500e+02 2.699932861328125000e+02 2.487862854003906250e+02 2.321048278808593750e+02 1.977682800292968750e+02 1.676320800781250000e+02 1.797338562011718750e+02 2.247421569824218750e+02 2.725593872070312500e+02 2.806677856445312500e+02 2.567259826660156250e+02 2.810119323730468750e+02 2.353184204101562500e+02 2.397527770996093750e+02 3.189118652343750000e+02 3.036756896972656250e+02 2.810123291015625000e+02 2.761543579101562500e+02 2.646020202636718750e+02 1.866130218505859375e+02 1.294109497070312500e+02 1.199264755249023438e+02 1.175895614624023438e+02 9.375796508789062500e+01 7.429792785644531250e+01 6.052584838867187500e+01 6.058390045166015625e+01 4.657864379882812500e+01 3.548558044433593750e+01 3.971686172485351562e+01 4.244786834716796875e+01 3.910960388183593750e+01 3.460991668701171875e+01 4.659738540649414062e+01 4.132222747802734375e+01 1.420694828033447266e+01 6.255404949188232422e+00 0.000000000000000000e+00 0.000000000000000000e+00 0.000000000000000000e+00
0.000000000000000000e+00 0.000000000000000000e+00 0.000000000000000000e+00 0.000000000000000000e+00 0.000000000000000000e+00 0.000000000000000000e+00 0.000000000000000000e+00 0.000000000000000000e+00 0.000000000000000000e+00 0.000000000000000000e+00 0.000000000000000000e+00 0.000000000000000000e+00 0.000000000000000000e+00 0.000000000000000000e+00 0.000000000000000000e+00 0.000000000000000000e+00 0.000000000000000000e+00 0.000000000000000000e+00 0.000000000000000000e+00 0.000000000000000000e+00 0.000000000000000000e+00 0.000000000000000000e+00 0.000000000000000000e+00 0.000000000000000000e+00 0.000000000000000000e+00 0.000000000000000000e+00 0.000000000000000000e+00 1.203689384460449219e+01 3.010274124145507812e+01 6.063216781616210938e+01 1.646651763916015625e+02 1.687088623046875000e+02 1.755184631347656250e+02 1.683811340332031250e+02 1.700224609375000000e+02 2.084770050048828125e+02 2.555378112792968750e+02 2.439661560058593750e+02 1.785480499267578125e+02 2.007916564941406250e+02 2.310763854980468750e+02 2.672694091796875000e+02 2.662269897460937500e+02 2.769429321289062500e+02 3.098559265136718750e+02 3.179992980957031250e+02 3.408678894042968750e+02 3.132771301269531250e+02 3.492584838867187500e+02 3.768288574218750000e+02 4.218789062500000000e+02 4.290276489257812500e+02 3.982699890136718750e+02 4.159906005859375000e+02 3.990104370117187500e+02 3.559403076171875000e+02 3.219253540039062500e+02 2.921183471679687500e+02 2.320875244140625000e+02 2.467109069824218750e+02 2.940250549316406250e+02 3.540034179687500000e+02 2.955729370117187500e+02 2.998161621093750000e+02 2.892897338867187500e+02 2.533556518554687500e+02 2.079838104248046875e+02 1.774119720458984375e+02 2.195301055908203125e+02 1.838357696533203125e+02 2.261304473876953125e+02 2.536800994873046875e+02 2.964771728515625000e+02 2.752472534179687500e+02 2.912576293945312500e+02 2.429881439208984375e+02 1.940336303710937500e+02 1.436291046142578125e+02 1.876004791259765625e+02 2.505230255126953125e+02 2.616932067871093750e+02 2.819385986328125000e+02 2.620608520507812500e+02 2.821527709960937500e+02 2.721542358398437500e+02 2.893727111816406250e+02 2.484461669921875000e+02 2.058702239990234375e+02 2.101400146484375000e+02 1.878529052734375000e+02 1.843872833251953125e+02 1.532868957519531250e+02 1.069052505493164062e+02 5.752552795410156250e+01 3.221058654785156250e+01 6.212055206298828125e+00 2.417237281799316406e+00 0.000000000000000000e+00 0.000000000000000000e+00 0.000000000000000000e+00 0.000000000000000000e+00 0.000000000000000000e+00 0.000000000000000000e+00 0.000000000000000000e+00 1.084438562393188477e-01 1.145341396331787109e+00 3.828761279582977295e-01 9.421439170837402344e-01 0.000000000000000000e+00 0.000000000000000000e+00 0.000000000000000000e+00
0.000000000000000000e+00 0.000000000000000000e+00 0.000000000000000000e+00 0.000000000000000000e+00 0.000000000000000000e+00 0.000000000000000000e+00 0.000000000000000000e+00 0.000000000000000000e+00 0.000000000000000000e+00 0.000000000000000000e+00 0.000000000000000000e+00 0.000000000000000000e+00 0.000000000000000000e+00 0.000000000000000000e+00 0.000000000000000000e+00 0.000000000000000000e+00 0.000000000000000000e+00 0.000000000000000000e+00 0.000000000000000000e+00 0.000000000000000000e+00 0.000000000000000000e+00 0.000000000000000000e+00 0.000000000000000000e+00 0.000000000000000000e+00 0.000000000000000000e+00 0.000000000000000000e+00 0.000000000000000000e+00 4.697739183902740479e-01 1.476458740234375000e+01 3.868672943115234375e+01 1.541138763427734375e+02 1.678475952148437500e+02 1.464322509765625000e+02 1.281382751464843750e+02 1.953006896972656250e+02 2.303976593017578125e+02 2.286977539062500000e+02 1.663990325927734375e+02 1.613373870849609375e+02 2.443751831054687500e+02 2.732440795898437500e+02 2.944306640625000000e+02 3.225028686523437500e+02 3.586673583984375000e+02 3.426387939453125000e+02 3.376589965820312500e+02 3.617862548828125000e+02 3.621520385742187500e+02 3.861647033691406250e+02 3.612036437988281250e+02 3.702592163085937500e+02 3.435960693359375000e+02 3.408098144531250000e+02 4.175305786132812500e+02 3.868152465820312500e+02 3.510082092285156250e+02 3.348932495117187500e+02 2.727870483398437500e+02 2.132322998046875000e+02 2.087141418457031250e+02 2.454543457031250000e+02 2.840894775390625000e+02 2.466512756347656250e+02 2.720597534179687500e+02 3.236337890625000000e+02 2.859953918457031250e+02 2.434736633300781250e+02 1.615404663085937500e+02 1.611332550048828125e+02 1.535291748046875000e+02 1.725304565429687500e+02 2.112060089111328125e+02 2.276369781494140625e+02 2.109897003173828125e+02 2.774978942871093750e+02 2.948077392578125000e+02 1.990568237304687500e+02 1.280858917236328125e+02 1.606286010742187500e+02 1.771756744384765625e+02 2.194055023193359375e+02 2.166147003173828125e+02 1.816502075195312500e+02 2.326215362548828125e+02 2.095608215332031250e+02 2.145073852539062500e+02 1.937664489746093750e+02 1.405499877929687500e+02 1.365860290527343750e+02 1.477144317626953125e+02 1.103275375366210938e+02 8.381242370605468750e+01 6.878579711914062500e+01 2.185101509094238281e+01 0.000000000000000000e+00 0.000000000000000000e+00 0.000000000000000000e+00 0.000000000000000000e+00 0.000000000000000000e+00 0.000000000000000000e+00 0.000000000000000000e+00 0.000000000000000000e+00 0.000000000000000000e+00 0.000000000000000000e+00 0.000000000000000000e+00 0.000000000000000000e+00 0.000000000000000000e+00 0.000000000000000000e+00 0.000000000000000000e+00 0.000000000000000000e+00 0.000000000000000000e+00
0.000000000000000000e+00 0.000000000000000000e+00 0.000000000000000000e+00 0.000000000000000000e+00 0.000000000000000000e+00 0.000000000000000000e+00 0.000000000000000000e+00 0.000000000000000000e+00 0.000000000000000000e+00 0.000000000000000000e+00 0.000000000000000000e+00 0.000000000000000000e+00 0.000000000000000000e+00 0.000000000000000000e+00 0.000000000000000000e+00 0.000000000000000000e+00 0.000000000000000000e+00 0.000000000000000000e+00 0.000000000000000000e+00 0.000000000000000000e+00 0.000000000000000000e+00 0.000000000000000000e+00 0.000000000000000000e+00 0.000000000000000000e+00 0.000000000000000000e+00 0.000000000000000000e+00 0.000000000000000000e+00 0.000000000000000000e+00 5.198859214782714844e+00 3.050129699707031250e+01 1.066507797241210938e+02 1.181929931640625000e+02 9.039836120605468750e+01 1.400821228027343750e+02 1.935093383789062500e+02 1.644097747802734375e+02 1.285718383789062500e+02 1.441794128417968750e+02 1.675985565185546875e+02 2.617780151367187500e+02 2.941817016601562500e+02 3.082427978515625000e+02 2.902209472656250000e+02 2.990905456542968750e+02 3.431823730468750000e+02 3.066690673828125000e+02 3.085556640625000000e+02 3.301152343750000000e+02 3.553358764648437500e+02 3.256497802734375000e+02 2.997528381347656250e+02 2.886339111328125000e+02 3.119922180175781250e+02 3.970539855957031250e+02 3.270262145996093750e+02 2.745199890136718750e+02 3.020512084960937500e+02 2.757611999511718750e+02 2.305140686035156250e+02 1.680437927246093750e+02 2.073206787109375000e+02 2.690621337890625000e+02 1.899485168457031250e+02 2.454419555664062500e+02 2.698290100097656250e+02 2.581224975585937500e+02 2.476810150146484375e+02 1.831418151855468750e+02 1.733503723144531250e+02 1.548824768066406250e+02 1.305073852539062500e+02 1.670740051269531250e+02 1.928380126953125000e+02 1.722676239013671875e+02 2.112757873535156250e+02 2.281585998535156250e+02 1.628242340087890625e+02 1.247699203491210938e+02 1.271219558715820312e+02 1.400709075927734375e+02 1.812016754150390625e+02 1.707864379882812500e+02 1.329268493652343750e+02 1.648439178466796875e+02 1.551445617675781250e+02 1.663075561523437500e+02 1.442959136962890625e+02 9.965357971191406250e+01 6.121486282348632812e+01 4.237628555297851562e+01 2.281277179718017578e+00 0.000000000000000000e+00 0.000000000000000000e+00 0.000000000000000000e+00 0.000000000000000000e+00 0.000000000000000000e+00 0.000000000000000000e+00 0.000000000000000000e+00 0.000000000000000000e+00 0.000000000000000000e+00 0.000000000000000000e+00 0.000000000000000000e+00 0.000000000000000000e+00 0.000000000000000000e+00 0.000000000000000000e+00 0.000000000000000000e+00 0.000000000000000000e+00 0.000000000000000000e+00 0.000000000000000000e+00 0.000000000000000000e+00 0.000000000000000000e+00
0.000000000000000000e+00 0.000000000000000000e+00 0.000000000000000000e+00 0.000000000000000000e+00 0.000000000000000000e+00 0.000000000000000000e+00 0.000000000000000000e+00 0.000000000000000000e+00 0.000000000000000000e+00 0.000000000000000000e+00 0.000000000000000000e+00 0.000000000000000000e+00 0.000000000000000000e+00 0.000000000000000000e+00 0.000000000000000000e+00 0.000000000000000000e+00 0.000000000000000000e+00 0.000000000000000000e+00 0.000000000000000000e+00 0.000000000000000000e+00 0.000000000000000000e+00 0.000000000000000000e+00 0.000000000000000000e+00 0.000000000000000000e+00 0.000000000000000000e+00 0.000000000000000000e+00 0.000000000000000000e+00 0.000000000000000000e+00 5.408724546432495117e-01 2.579231262207031250e+01 6.440010833740234375e+01 8.000515747070312500e+01 1.039406967163085938e+02 1.373866882324218750e+02 1.511059722900390625e+02 1.198605346679687500e+02 1.627262115478515625e+02 2.106941528320312500e+02 2.320782775878906250e+02 2.363058929443359375e+02 2.360443572998046875e+02 2.243311767578125000e+02 2.176619415283203125e+02 2.585169677734375000e+02 2.748971252441406250e+02 2.513911132812500000e+02 2.696365356445312500e+02 2.944681091308593750e+02 2.979816589355468750e+02 2.786231079101562500e+02 2.706691284179687500e+02 2.823786621093750000e+02 3.185539855957031250e+02 4.117554931640625000e+02 3.482719116210937500e+02 2.680556030273437500e+02 2.283090209960937500e+02 2.048692932128906250e+02 1.787010498046875000e+02 1.557301025390625000e+02 1.948633422851562500e+02 2.400709228515625000e+02 1.767570495605468750e+02 2.307043457031250000e+02 2.190816040039062500e+02 2.180940551757812500e+02 2.726999206542968750e+02 2.617992553710937500e+02 2.453918609619140625e+02 2.365829925537109375e+02 2.038412322998046875e+02 1.278266143798828125e+02 1.714744567871093750e+02 1.381477203369140625e+02 1.596937255859375000e+02 2.124765625000000000e+02 1.951149902343750000e+02 1.331650390625000000e+02 1.096390457153320312e+02 1.590837097167968750e+02 1.767436218261718750e+02 1.657699584960937500e+02 1.061737823486328125e+02 1.366295928955078125e+02 1.276058883666992188e+02 1.020738754272460938e+02 9.224853515625000000e+01 6.192197799682617188e+01 1.983362960815429688e+01 2.389611005783081055e-01 0.000000000000000000e+00 0.000000000000000000e+00 0.000000000000000000e+00 0.000000000000000000e+00 0.000000000000000000e+00 0.000000000000000000e+00 0.000000000000000000e+00 0.000000000000000000e+00 0.000000000000000000e+00 0.000000000000000000e+00 0.000000000000000000e+00 0.000000000000000000e+00 0.000000000000000000e+00 0.000000000000000000e+00 0.000000000000000000e+00 0.000000000000000000e+00 0.000000000000000000e+00 0.000000000000000000e+00 0.000000000000000000e+00 0.000000000000000000e+00 0.000000000000000000e+00
0.000000000000000000e+00 0.000000000000000000e+00 0.000000000000000000e+00 0.000000000000000000e+00 0.000000000000000000e+00 0.000000000000000000e+00 0.000000000000000000e+00 0.000000000000000000e+00 0.000000000000000000e+00 0.000000000000000000e+00 0.000000000000000000e+00 0.000000000000000000e+00 0.000000000000000000e+00 0.000000000000000000e+00 0.000000000000000000e+00 0.000000000000000000e+00 0.000000000000000000e+00 0.000000000000000000e+00 0.000000000000000000e+00 0.000000000000000000e+00 0.000000000000000000e+00 0.000000000000000000e+00 0.000000000000000000e+00 0.000000000000000000e+00 0.000000000000000000e+00 0.000000000000000000e+00 0.000000000000000000e+00 0.000000000000000000e+00 0.000000000000000000e+00 3.410805940628051758e+00 7.182351684570312500e+01 1.183309707641601562e+02 1.402056121826171875e+02 1.605106353759765625e+02 1.043972702026367188e+02 1.453147583007812500e+02 2.178464355468750000e+02 2.540088043212890625e+02 2.174297637939453125e+02 1.432085876464843750e+02 1.457856445312500000e+02 1.602611999511718750e+02 1.687851562500000000e+02 1.943296508789062500e+02 2.090139160156250000e+02 2.078521423339843750e+02 2.315817718505859375e+02 2.449022827148437500e+02 2.460099792480468750e+02 2.677473449707031250e+02 3.178611145019531250e+02 3.349904174804687500e+02 3.329076538085937500e+02 4.082833251953125000e+02 3.475962829589843750e+02 3.145741577148437500e+02 3.010625000000000000e+02 2.609703979492187500e+02 2.254856262207031250e+02 1.764841918945312500e+02 1.416167907714843750e+02 2.008401794433593750e+02 1.690684814453125000e+02 2.144634246826171875e+02 1.884746856689453125e+02 1.914206390380859375e+02 2.111083221435546875e+02 2.454872741699218750e+02 2.591511840820312500e+02 2.731895751953125000e+02 2.144925537109375000e+02 1.007028198242187500e+02 1.164983825683593750e+02 1.128860626220703125e+02 1.651459503173828125e+02 2.084505462646484375e+02 1.556224670410156250e+02 1.552189025878906250e+02 8.904698181152343750e+01 1.156359710693359375e+02 1.522048492431640625e+02 1.431891326904296875e+02 1.106848907470703125e+02 1.023828277587890625e+02 1.252637481689453125e+02 9.218199157714843750e+01 6.495624542236328125e+01 3.855289077758789062e+01 5.116006374359130859e+00 0.000000000000000000e+00 0.000000000000000000e+00 0.000000000000000000e+00 0.000000000000000000e+00 0.000000000000000000e+00 0.000000000000000000e+00 0.000000000000000000e+00 0.000000000000000000e+00 0.000000000000000000e+00 0.000000000000000000e+00 0.000000000000000000e+00 0.000000000000000000e+00 0.000000000000000000e+00 0.000000000000000000e+00 0.000000000000000000e+00 0.000000000000000000e+00 0.000000000000000000e+00 0.000000000000000000e+00 0.000000000000000000e+00 0.000000000000000000e+00 0.000000000000000000e+00 0.000000000000000000e+00
0.000000000000000000e+00 0.000000000000000000e+00 0.000000000000000000e+00 0.000000000000000000e+00 0.000000000000000000e+00 0.000000000000000000e+00 0.000000000000000000e+00 0.000000000000000000e+00 0.000000000000000000e+00 0.000000000000000000e+00 0.000000000000000000e+00 0.000000000000000000e+00 0.000000000000000000e+00 0.000000000000000000e+00 0.000000000000000000e+00 0.000000000000000000e+00 0.000000000000000000e+00 0.000000000000000000e+00 0.000000000000000000e+00 0.000000000000000000e+00 0.000000000000000000e+00 0.000000000000000000e+00 0.000000000000000000e+00 0.000000000000000000e+00 0.000000000000000000e+00 0.000000000000000000e+00 0.000000000000000000e+00 0.000000000000000000e+00 0.000000000000000000e+00 0.000000000000000000e+00 3.372934341430664062e+01 7.669198608398437500e+01 1.273630447387695312e+02 1.590171356201171875e+02 9.155678558349609375e+01 1.409957885742187500e+02 1.928996582031250000e+02 2.247355194091796875e+02 1.594862823486328125e+02 1.560617065429687500e+02 1.504682006835937500e+02 1.650288848876953125e+02 1.764849090576171875e+02 1.903565063476562500e+02 2.286427612304687500e+02 2.839004516601562500e+02 2.620589599609375000e+02 2.374050903320312500e+02 3.044848632812500000e+02 2.763632507324218750e+02 2.819263916015625000e+02 3.209951477050781250e+02 3.611761474609375000e+02 3.821874694824218750e+02 3.022346801757812500e+02 2.613096313476562500e+02 2.692449035644531250e+02 2.652101440429687500e+02 2.524363403320312500e+02 2.314230346679687500e+02 1.679509124755859375e+02 1.563142395019531250e+02 1.496260223388671875e+02 2.026695709228515625e+02 1.741227569580078125e+02 1.574645080566406250e+02 1.558307495117187500e+02 2.049490203857421875e+02 1.725812377929687500e+02 1.844098968505859375e+02 1.777084350585937500e+02 1.384071044921875000e+02 8.415010833740234375e+01 1.076925277709960938e+02 1.461828765869140625e+02 1.657857208251953125e+02 1.449764099121093750e+02 1.272438812255859375e+02 8.961756896972656250e+01 1.246465682983398438e+02 1.564130554199218750e+02 1.176846389770507812e+02 1.185423278808593750e+02 7.108563232421875000e+01 8.393512725830078125e+01 5.686542892456054688e+01 1.519865989685058594e+01 7.754513025283813477e-01 0.000000000000000000e+00 0.000000000000000000e+00 0.000000000000000000e+00 0.000000000000000000e+00 0.000000000000000000e+00 0.000000000000000000e+00 0.000000000000000000e+00 0.000000000000000000e+00 0.000000000000000000e+00 0.000000000000000000e+00 0.000000000000000000e+00 0.000000000000000000e+00 0.000000000000000000e+00 0.000000000000000000e+00 0.000000000000000000e+00 0.000000000000000000e+00 0.000000000000000000e+00 0.000000000000000000e+00 0.000000000000000000e+00 0.000000000000000000e+00 0.000000000000000000e+00 0.000000000000000000e+00 0.000000000000000000e+00
0.000000000000000000e+00 0.000000000000000000e+00 0.000000000000000000e+00 0.000000000000000000e+00 0.000000000000000000e+00 0.000000000000000000e+00 0.000000000000000000e+00 0.000000000000000000e+00 0.000000000000000000e+00 0.000000000000000000e+00 0.000000000000000000e+00 0.000000000000000000e+00 0.000000000000000000e+00 0.000000000000000000e+00 0.000000000000000000e+00 0.000000000000000000e+00 0.000000000000000000e+00 0.000000000000000000e+00 0.000000000000000000e+00 0.000000000000000000e+00 0.000000000000000000e+00 0.000000000000000000e+00 0.000000000000000000e+00 0.000000000000000000e+00 0.000000000000000000e+00 0.000000000000000000e+00 0.000000000000000000e+00 0.000000000000000000e+00 0.000000000000000000e+00 0.000000000000000000e+00 1.825255012512207031e+01 5.169222259521484375e+01 8.715710449218750000e+01 1.095871887207031250e+02 8.120230102539062500e+01 1.342243652343750000e+02 1.576820983886718750e+02 1.794024047851562500e+02 1.187906417846679688e+02 1.804815979003906250e+02 1.828382415771484375e+02 2.124790496826171875e+02 2.588980407714843750e+02 2.639968872070312500e+02 2.809722290039062500e+02 3.174696960449218750e+02 3.284348754882812500e+02 3.010379028320312500e+02 3.375438842773437500e+02 3.317579650878906250e+02 2.884439086914062500e+02 3.070498962402343750e+02 3.521030273437500000e+02 3.868132934570312500e+02 3.077910156250000000e+02 2.694049377441406250e+02 2.220655212402343750e+02 2.099400634765625000e+02 1.909012756347656250e+02 1.708249969482421875e+02 1.421361541748046875e+02 1.239726715087890625e+02 1.299391326904296875e+02 1.563793945312500000e+02 1.585957031250000000e+02 1.186506958007812500e+02 1.250944290161132812e+02 1.726270294189453125e+02 1.703715820312500000e+02 1.400674743652343750e+02 1.196438674926757812e+02 1.215558853149414062e+02 8.331311798095703125e+01 8.034405517578125000e+01 9.915873718261718750e+01 1.421851959228515625e+02 1.420440063476562500e+02 1.274368209838867188e+02 7.272699737548828125e+01 1.188308868408203125e+02 1.566020202636718750e+02 9.033964538574218750e+01 1.000634918212890625e+02 7.685286712646484375e+01 5.520595932006835938e+01 1.121290874481201172e+01 0.000000000000000000e+00 0.000000000000000000e+00 0.000000000000000000e+00 0.000000000000000000e+00 0.000000000000000000e+00 0.000000000000000000e+00 0.000000000000000000e+00 0.000000000000000000e+00 0.000000000000000000e+00 0.000000000000000000e+00 0.000000000000000000e+00 0.000000000000000000e+00 0.000000000000000000e+00 0.000000000000000000e+00 0.000000000000000000e+00 0.000000000000000000e+00 0.000000000000000000e+00 0.000000000000000000e+00 0.000000000000000000e+00 0.000000000000000000e+00 0.000000000000000000e+00 0.000000000000000000e+00 0.000000000000000000e+00 0.000000000000000000e+00 0.000000000000000000e+00
0.000000000000000000e+00 0.000000000000000000e+00 0.000000000000000000e+00 0.000000000000000000e+00 0.000000000000000000e+00 0.000000000000000000e+00 0.000000000000000000e+00 0.000000000000000000e+00 0.000000000000000000e+00 0.000000000000000000e+00 0.000000000000000000e+00 0.000000000000000000e+00 0.000000000000000000e+00 0.000000000000000000e+00 0.000000000000000000e+00 0.000000000000000000e+00 0.000000000000000000e+00 0.000000000000000000e+00 0.000000000000000000e+00 0.000000000000000000e+00 0.000000000000000000e+00 0.000000000000000000e+00 0.000000000000000000e+00 0.000000000000000000e+00 0.000000000000000000e+00 0.000000000000000000e+00 0.000000000000000000e+00 0.000000000000000000e+00 0.000000000000000000e+00 2.552977390587329865e-02 1.001654720306396484e+01 1.908641242980957031e+01 3.036849403381347656e+01 4.239854049682617188e+01 7.173381805419921875e+01 8.197525024414062500e+01 1.299056549072265625e+02 1.707457427978515625e+02 8.760133361816406250e+01 1.563769989013671875e+02 1.861124572753906250e+02 2.230100250244140625e+02 2.723051452636718750e+02 2.979286499023437500e+02 2.997348937988281250e+02 2.862760314941406250e+02 3.272958679199218750e+02 3.688007812500000000e+02 3.921071166992187500e+02 3.567900695800781250e+02 3.447084045410156250e+02 3.111362915039062500e+02 3.453848876953125000e+02 3.817318115234375000e+02 3.053580322265625000e+02 2.727994689941406250e+02 2.782471313476562500e+02 2.343191375732421875e+02 2.136279754638671875e+02 1.964939880371093750e+02 1.778920440673828125e+02 1.458044891357421875e+02 1.178447036743164062e+02 1.123167572021484375e+02 1.080321960449218750e+02 1.048968048095703125e+02 1.246555633544921875e+02 1.307159271240234375e+02 1.434885711669921875e+02 1.438691101074218750e+02 1.263733367919921875e+02 9.285275268554687500e+01 8.980175781250000000e+01 6.362614822387695312e+01 7.948908233642578125e+01 1.010148468017578125e+02 1.114205932617187500e+02 1.141004257202148438e+02 9.679186248779296875e+01 6.731977844238281250e+01 1.188440551757812500e+02 6.022939300537109375e+01 5.231968688964843750e+01 2.315591621398925781e+01 6.500342369079589844e+00 0.000000000000000000e+00 0.000000000000000000e+00 0.000000000000000000e+00 0.000000000000000000e+00 0.000000000000000000e+00 0.000000000000000000e+00 0.000000000000000000e+00 0.000000000000000000e+00 0.000000000000000000e+00 0.000000000000000000e+00 0.000000000000000000e+00 0.000000000000000000e+00 0.000000000000000000e+00 0.000000000000000000e+00 0.000000000000000000e+00 0.000000000000000000e+00 0.000000000000000000e+00 0.000000000000000000e+00 0.000000000000000000e+00 0.000000000000000000e+00 0.000000000000000000e+00 0.000000000000000000e+00 0.000000000000000000e+00 0.000000000000000000e+00 0.000000000000000000e+00 0.000000000000000000e+00
0.000000000000000000e+00 0.000000000000000000e+00 0.000000000000000000e+00 0.000000000000000000e+00 0.000000000000000000e+00 0.000000000000000000e+00 0.000000000000000000e+00 0.000000000000000000e+00 0.000000000000000000e+00 0.000000000000000000e+00 0.000000000000000000e+00 0.000000000000000000e+00 0.000000000000000000e+00 0.000000000000000000e+00 0.000000000000000000e+00 0.000000000000000000e+00 0.000000000000000000e+00 0.000000000000000000e+00 0.000000000000000000e+00 0.000000000000000000e+00 0.000000000000000000e+00 0.000000000000000000e+00 0.000000000000000000e+00 0.000000000000000000e+00 0.000000000000000000e+00 0.000000000000000000e+00 0.000000000000000000e+00 0.000000000000000000e+00 0.000000000000000000e+00 2.668613195419311523e-02 1.683994531631469727e+00 5.140685081481933594e+00 1.159491634368896484e+01 2.540161895751953125e+01 4.262602615356445312e+01 9.501494598388671875e+01 1.264791946411132812e+02 1.468928222656250000e+02 7.637820434570312500e+01 1.663828735351562500e+02 1.886436157226562500e+02 2.245811920166015625e+02 2.677907104492187500e+02 2.810726318359375000e+02 2.198893737792968750e+02 2.233959503173828125e+02 2.777630310058593750e+02 3.360383911132812500e+02 3.681277770996093750e+02 4.110919189453125000e+02 3.722160644531250000e+02 3.432946777343750000e+02 3.577719421386718750e+02 4.107809753417968750e+02 3.622829589843750000e+02 3.653601074218750000e+02 3.100762939453125000e+02 3.036934509277343750e+02 2.414521179199218750e+02 2.330595245361328125e+02 2.088828735351562500e+02 1.978567810058593750e+02 1.838199920654296875e+02 1.770510559082031250e+02 1.529952697753906250e+02 1.136671600341796875e+02 9.243106842041015625e+01 1.072605209350585938e+02 1.256829910278320312e+02 1.178601379394531250e+02 1.066825714111328125e+02 9.350987243652343750e+01 8.907245635986328125e+01 7.295296478271484375e+01 9.285505676269531250e+01 1.053491058349609375e+02 1.061706085205078125e+02 6.610492706298828125e+01 8.590011596679687500e+01 5.768891906738281250e+01 4.803939437866210938e+01 5.462852001190185547e+00 0.000000000000000000e+00 0.000000000000000000e+00 0.000000000000000000e+00 0.000000000000000000e+00 0.000000000000000000e+00 0.000000000000000000e+00 0.000000000000000000e+00 0.000000000000000000e+00 0.000000000000000000e+00 0.000000000000000000e+00 0.000000000000000000e+00 0.000000000000000000e+00 0.000000000000000000e+00 0.000000000000000000e+00 0.000000000000000000e+00 0.000000000000000000e+00 0.000000000000000000e+00 0.000000000000000000e+00 0.000000000000000000e+00 0.000000000000000000e+00 0.000000000000000000e+00 0.000000000000000000e+00 0.000000000000000000e+00 0.000000000000000000e+00 0.000000000000000000e+00 0.000000000000000000e+00 0.000000000000000000e+00 0.000000000000000000e+00 0.000000000000000000e+00
0.000000000000000000e+00 0.000000000000000000e+00 0.000000000000000000e+00 0.000000000000000000e+00 0.000000000000000000e+00 0.000000000000000000e+00 0.000000000000000000e+00 0.000000000000000000e+00 0.000000000000000000e+00 0.000000000000000000e+00 0.000000000000000000e+00 0.000000000000000000e+00 0.000000000000000000e+00 0.000000000000000000e+00 0.000000000000000000e+00 0.000000000000000000e+00 0.000000000000000000e+00 0.000000000000000000e+00 0.000000000000000000e+00 0.000000000000000000e+00 0.000000000000000000e+00 0.000000000000000000e+00 0.000000000000000000e+00 0.000000000000000000e+00 0.000000000000000000e+00 0.000000000000000000e+00 0.000000000000000000e+00 0.000000000000000000e+00 0.000000000000000000e+00 0.000000000000000000e+00 0.000000000000000000e+00 0.000000000000000000e+00 0.000000000000000000e+00 7.815325260162353516e+00 3.077623939514160156e+01 5.169052505493164062e+01 1.030937957763671875e+02 1.369680175781250000e+02 7.785577392578125000e+01 1.373843383789062500e+02 1.527409820556640625e+02 1.621195068359375000e+02 1.712359619140625000e+02 2.289150543212890625e+02 1.693533477783203125e+02 1.993838500976562500e+02 2.525472412109375000e+02 2.718493041992187500e+02 3.195551147460937500e+02 3.885370483398437500e+02 4.177958068847656250e+02 4.018746032714843750e+02 3.463300476074218750e+02 3.810963439941406250e+02 3.592686767578125000e+02 3.250388793945312500e+02 2.824422607421875000e+02 2.519867248535156250e+02 2.298981781005859375e+02 1.745190124511718750e+02 1.548375549316406250e+02 1.638394317626953125e+02 1.973957366943359375e+02 1.773110504150390625e+02 1.817207336425781250e+02 1.591880798339843750e+02 1.346915130615234375e+02 7.038568878173828125e+01 7.008253479003906250e+01 8.730433654785156250e+01 8.530152130126953125e+01 9.372663879394531250e+01 6.270129013061523438e+01 4.961714553833007812e+01 9.073274230957031250e+01 9.785878753662109375e+01 8.744565582275390625e+01 7.568595123291015625e+01 4.850485610961914062e+01 4.918252563476562500e+01 2.527688407897949219e+01 0.000000000000000000e+00 0.000000000000000000e+00 0.000000000000000000e+00 0.000000000000000000e+00 0.000000000000000000e+00 0.000000000000000000e+00 0.000000000000000000e+00 0.000000000000000000e+00 0.000000000000000000e+00 0.000000000000000000e+00 0.000000000000000000e+00 0.000000000000000000e+00 0.000000000000000000e+00 0.000000000000000000e+00 0.000000000000000000e+00 0.000000000000000000e+00 0.000000000000000000e+00 0.000000000000000000e+00 0.000000000000000000e+00 0.000000000000000000e+00 0.000000000000000000e+00 0.000000000000000000e+00 0.000000000000000000e+00 0.000000000000000000e+00 0.000000000000000000e+00 0.000000000000000000e+00 0.000000000000000000e+00 0.000000000000000000e+00 0.000000000000000000e+00 0.000000000000000000e+00
0.000000000000000000e+00 0.000000000000000000e+00 0.000000000000000000e+00 0.000000000000000000e+00 0.000000000000000000e+00 0.000000000000000000e+00 0.000000000000000000e+00 0.000000000000000000e+00 0.000000000000000000e+00 0.000000000000000000e+00 0.000000000000000000e+00 0.000000000000000000e+00 0.000000000000000000e+00 0.000000000000000000e+00 0.000000000000000000e+00 0.000000000000000000e+00 0.000000000000000000e+00 0.000000000000000000e+00 0.000000000000000000e+00 0.000000000000000000e+00 0.000000000000000000e+00 0.000000000000000000e+00 0.000000000000000000e+00 0.000000000000000000e+00 0.000000000000000000e+00 0.000000000000000000e+00 0.000000000000000000e+00 0.000000000000000000e+00 0.000000000000000000e+00 0.000000000000000000e+00 0.000000000000000000e+00 0.000000000000000000e+00 0.000000000000000000e+00 6.009421125054359436e-02 2.145070266723632812e+01 3.274317932128906250e+01 5.703477859497070312e+01 9.171715545654296875e+01 7.137404632568359375e+01 8.698441314697265625e+01 1.158225860595703125e+02 1.223285064697265625e+02 1.784866790771484375e+02 1.949180603027343750e+02 1.601729583740234375e+02 2.242680969238281250e+02 1.980758209228515625e+02 2.190794830322265625e+02 3.151137390136718750e+02 3.237469787597656250e+02 3.538008422851562500e+02 3.627041625976562500e+02 3.208995056152343750e+02 3.007209167480468750e+02 3.090478210449218750e+02 2.566520690917968750e+02 2.427469482421875000e+02 1.964629974365234375e+02 2.221432037353515625e+02 1.843465270996093750e+02 1.333671569824218750e+02 1.093371124267578125e+02 1.537132568359375000e+02 1.418107452392578125e+02 1.493426208496093750e+02 1.442449340820312500e+02 1.374501800537109375e+02 1.065116729736328125e+02 7.015962219238281250e+01 7.608689117431640625e+01 8.111482238769531250e+01 8.367909240722656250e+01 5.302630615234375000e+01 5.096197891235351562e+01 9.273165893554687500e+01 9.374513244628906250e+01 6.674604034423828125e+01 3.720862960815429688e+01 9.770140647888183594e+00 0.000000000000000000e+00 0.000000000000000000e+00 0.000000000000000000e+00 0.000000000000000000e+00 0.000000000000000000e+00 0.000000000000000000e+00 0.000000000000000000e+00 0.000000000000000000e+00 0.000000000000000000e+00 0.000000000000000000e+00 0.000000000000000000e+00 0.000000000000000000e+00 0.000000000000000000e+00 0.000000000000000000e+00 0.000000000000000000e+00 0.000000000000000000e+00 0.000000000000000000e+00 0.000000000000000000e+00 0.000000000000000000e+00 0.000000000000000000e+00 0.000000000000000000e+00 0.000000000000000000e+00 0.000000000000000000e+00 0.000000000000000000e+00 0.000000000000000000e+00 0.000000000000000000e+00 0.000000000000000000e+00 0.000000000000000000e+00 0.000000000000000000e+00 0.000000000000000000e+00 0.000000000000000000e+00 0.000000000000000000e+00
0.000000000000000000e+00 0.000000000000000000e+00 0.000000000000000000e+00 0.000000000000000000e+00 0.000000000000000000e+00 0.000000000000000000e+00 0.000000000000000000e+00 0.000000000000000000e+00 0.000000000000000000e+00 0.000000000000000000e+00 0.000000000000000000e+00 0.000000000000000000e+00 0.000000000000000000e+00 0.000000000000000000e+00 0.000000000000000000e+00 0.000000000000000000e+00 0.000000000000000000e+00 0.000000000000000000e+00 0.000000000000000000e+00 0.000000000000000000e+00 0.000000000000000000e+00 0.000000000000000000e+00 0.000000000000000000e+00 0.000000000000000000e+00 0.000000000000000000e+00 0.000000000000000000e+00 0.000000000000000000e+00 0.000000000000000000e+00 0.000000000000000000e+00 0.000000000000000000e+00 0.000000000000000000e+00 0.000000000000000000e+00 0.000000000000000000e+00 0.000000000000000000e+00 7.786501407623291016e+00 2.230721235275268555e+00 6.258772373199462891e+00 2.561081886291503906e+01 4.783222961425781250e+01 7.820954895019531250e+01 8.185073089599609375e+01 1.091580963134765625e+02 1.449019622802734375e+02 9.801623535156250000e+01 1.675706481933593750e+02 1.877516784667968750e+02 1.617326660156250000e+02 2.355820617675781250e+02 2.981515197753906250e+02 2.750035095214843750e+02 2.981246643066406250e+02 2.994996337890625000e+02 2.997318725585937500e+02 2.260643310546875000e+02 2.833329772949218750e+02 2.185741577148437500e+02 1.867776336669921875e+02 2.118795623779296875e+02 1.864207153320312500e+02 1.687388000488281250e+02 1.414147796630859375e+02 1.197641067504882812e+02 1.028626022338867188e+02 1.053067245483398438e+02 1.154341278076171875e+02 1.087152023315429688e+02 1.002897262573242188e+02 1.018128204345703125e+02 5.354638671875000000e+01 8.115839385986328125e+01 7.911389160156250000e+01 7.414876556396484375e+01 5.341172790527343750e+01 4.007781600952148438e+01 7.486032867431640625e+01 7.737501525878906250e+01 4.073152160644531250e+01 1.322421073913574219e+01 9.340822696685791016e-02 0.000000000000000000e+00 0.000000000000000000e+00 0.000000000000000000e+00 0.000000000000000000e+00 0.000000000000000000e+00 0.000000000000000000e+00 0.000000000000000000e+00 0.000000000000000000e+00 0.000000000000000000e+00 0.000000000000000000e+00 0.000000000000000000e+00 0.000000000000000000e+00 0.000000000000000000e+00 0.000000000000000000e+00 0.000000000000000000e+00 0.000000000000000000e+00 0.000000000000000000e+00 0.000000000000000000e+00 0.000000000000000000e+00 0.000000000000000000e+00 0.000000000000000000e+00 0.000000000000000000e+00 0.000000000000000000e+00 0.000000000000000000e+00 0.000000000000000000e+00 0.000000000000000000e+00 0.000000000000000000e+00 0.000000000000000000e+00 0.000000000000000000e+00 0.000000000000000000e+00 0.000000000000000000e+00 0.000000000000000000e+00
0.000000000000000000e+00 0.000000000000000000e+00 0.000000000000000000e+00 0.000000000000000000e+00 0.000000000000000000e+00 0.000000000000000000e+00 0.000000000000000000e+00 0.000000000000000000e+00 0.000000000000000000e+00 0.000000000000000000e+00 0.000000000000000000e+00 0.000000000000000000e+00 0.000000000000000000e+00 0.000000000000000000e+00 0.000000000000000000e+00 0.000000000000000000e+00 0.000000000000000000e+00 0.000000000000000000e+00 0.000000000000000000e+00 0.000000000000000000e+00 0.000000000000000000e+00 0.000000000000000000e+00 0.000000000000000000e+00 0.000000000000000000e+00 0.000000000000000000e+00 0.000000000000000000e+00 0.000000000000000000e+00 0.000000000000000000e+00 0.000000000000000000e+00 0.000000000000000000e+00 0.000000000000000000e+00 0.000000000000000000e+00 0.000000000000000000e+00 0.000000000000000000e+00 0.000000000000000000e+00 0.000000000000000000e+00 0.000000000000000000e+00 1.854516625404357910e+00 2.475662803649902344e+01 4.973554229736328125e+01 6.733915710449218750e+01 1.068050842285156250e+02 8.387794494628906250e+01 5.456268692016601562e+01 1.085338745117187500e+02 1.161458816528320312e+02 1.444048461914062500e+02 2.107500915527343750e+02 2.569547729492187500e+02 2.314399719238281250e+02 2.338433380126953125e+02 2.910741882324218750e+02 2.824914855957031250e+02 1.689905090332031250e+02 2.113887023925781250e+02 2.236021423339843750e+02 1.452305908203125000e+02 1.784962158203125000e+02 1.535207366943359375e+02 1.322064819335937500e+02 1.320198516845703125e+02 1.001956481933593750e+02 7.982612609863281250e+01 8.546320343017578125e+01 8.561798858642578125e+01 7.928894805908203125e+01 7.453926086425781250e+01 8.440632629394531250e+01 4.058459854125976562e+01 4.988456726074218750e+01 3.990770339965820312e+01 4.715819931030273438e+01 5.194274139404296875e+01 2.938968849182128906e+01 5.159066009521484375e+01 3.841216278076171875e+01 1.786285972595214844e+01 6.558019161224365234e+00 3.491014614701271057e-02 0.000000000000000000e+00 0.000000000000000000e+00 0.000000000000000000e+00 0.000000000000000000e+00 0.000000000000000000e+00 0.000000000000000000e+00 0.000000000000000000e+00 0.000000000000000000e+00 0.000000000000000000e+00 0.000000000000000000e+00 0.000000000000000000e+00 0.000000000000000000e+00 0.000000000000000000e+00 0.000000000000000000e+00 0.000000000000000000e+00 0.000000000000000000e+00 0.000000000000000000e+00 0.000000000000000000e+00 0.000000000000000000e+00 0.000000000000000000e+00 0.000000000000000000e+00 0.000000000000000000e+00 0.000000000000000000e+00 0.000000000000000000e+00 0.000000000000000000e+00 0.000000000000000000e+00 0.000000000000000000e+00 0.000000000000000000e+00 0.000000000000000000e+00 0.000000000000000000e+00 0.000000000000000000e+00 0.000000000000000000e+00
0.000000000000000000e+00 0.000000000000000000e+00 0.000000000000000000e+00 0.000000000000000000e+00 0.000000000000000000e+00 0.000000000000000000e+00 0.000000000000000000e+00 0.000000000000000000e+00 0.000000000000000000e+00 0.000000000000000000e+00 0.000000000000000000e+00 0.000000000000000000e+00 0.000000000000000000e+00 0.000000000000000000e+00 0.000000000000000000e+00 0.000000000000000000e+00 0.000000000000000000e+00 0.000000000000000000e+00 0.000000000000000000e+00 0.000000000000000000e+00 0.000000000000000000e+00 0.000000000000000000e+00 0.000000000000000000e+00 0.000000000000000000e+00 0.000000000000000000e+00 0.000000000000000000e+00 0.000000000000000000e+00 0.000000000000000000e+00 0.000000000000000000e+00 0.000000000000000000e+00 0.000000000000000000e+00 0.000000000000000000e+00 0.000000000000000000e+00 0.000000000000000000e+00 0.000000000000000000e+00 0.000000000000000000e+00 0.000000000000000000e+00 0.000000000000000000e+00 2.271269321441650391e+00 7.595263004302978516e+00 1.987350654602050781e+01 4.943451690673828125e+01 5.310675048828125000e+01 1.111578521728515625e+02 1.058135681152343750e+02 1.447546997070312500e+02 1.798390045166015625e+02 2.025848388671875000e+02 1.929423675537109375e+02 1.907819519042968750e+02 2.182322082519531250e+02 2.525071105957031250e+02 2.561454772949218750e+02 1.336126708984375000e+02 1.634151153564453125e+02 1.900285491943359375e+02 1.588158569335937500e+02 9.671522521972656250e+01 1.383472137451171875e+02 8.937030792236328125e+01 9.998725891113281250e+01 6.977322387695312500e+01 6.489952087402343750e+01 8.751102447509765625e+01 7.081240081787109375e+01 6.094811630249023438e+01 4.351366043090820312e+01 4.415311813354492188e+01 1.710202980041503906e+01 1.326734066009521484e+01 4.563986778259277344e+00 4.101195335388183594e+00 3.830068111419677734e+00 2.577838897705078125e+00 1.275202631950378418e+00 3.745802342891693115e-01 0.000000000000000000e+00 0.000000000000000000e+00 0.000000000000000000e+00 0.000000000000000000e+00 0.000000000000000000e+00 0.000000000000000000e+00 0.000000000000000000e+00 0.000000000000000000e+00 0.000000000000000000e+00 0.000000000000000000e+00 0.000000000000000000e+00 0.000000000000000000e+00 0.000000000000000000e+00 0.000000000000000000e+00 0.000000000000000000e+00 0.000000000000000000e+00 0.000000000000000000e+00 0.000000000000000000e+00 0.000000000000000000e+00 0.000000000000000000e+00 0.000000000000000000e+00 0.000000000000000000e+00 0.000000000000000000e+00 0.000000000000000000e+00 0.000000000000000000e+00 0.000000000000000000e+00 0.000000000000000000e+00 0.000000000000000000e+00 0.000000000000000000e+00 0.000000000000000000e+00 0.000000000000000000e+00 0.000000000000000000e+00 0.000000000000000000e+00 0.000000000000000000e+00 0.000000000000000000e+00
0.000000000000000000e+00 0.000000000000000000e+00 0.000000000000000000e+00 0.000000000000000000e+00 0.000000000000000000e+00 0.000000000000000000e+00 0.000000000000000000e+00 0.000000000000000000e+00 0.000000000000000000e+00 0.000000000000000000e+00 0.000000000000000000e+00 0.000000000000000000e+00 0.000000000000000000e+00 0.000000000000000000e+00 0.000000000000000000e+00 0.000000000000000000e+00 0.000000000000000000e+00 0.000000000000000000e+00 0.000000000000000000e+00 0.000000000000000000e+00 0.000000000000000000e+00 0.000000000000000000e+00 0.000000000000000000e+00 0.000000000000000000e+00 0.000000000000000000e+00 0.000000000000000000e+00 0.000000000000000000e+00 0.000000000000000000e+00 0.000000000000000000e+00 0.000000000000000000e+00 0.000000000000000000e+00 0.000000000000000000e+00 0.000000000000000000e+00 0.000000000000000000e+00 0.000000000000000000e+00 0.000000000000000000e+00 0.000000000000000000e+00 0.000000000000000000e+00 0.000000000000000000e+00 0.000000000000000000e+00 4.692497849464416504e-01 5.321160793304443359e+00 3.542832183837890625e+01 8.106800079345703125e+01 1.450684204101562500e+02 1.532051696777343750e+02 1.584013977050781250e+02 1.484927368164062500e+02 1.798115234375000000e+02 2.088877105712890625e+02 2.338327636718750000e+02 2.294189910888671875e+02 1.687199859619140625e+02 1.081122283935546875e+02 1.613231506347656250e+02 1.509769592285156250e+02 1.399540863037109375e+02 1.179166717529296875e+02 7.532134246826171875e+01 5.670452499389648438e+01 3.868809890747070312e+01 2.516095352172851562e+01 2.136932945251464844e+01 3.220748901367187500e+01 2.876383018493652344e+01 3.148132133483886719e+01 2.542759704589843750e+01 1.311506462097167969e+01 2.115533351898193359e+00 0.000000000000000000e+00 0.000000000000000000e+00 0.000000000000000000e+00 0.000000000000000000e+00 0.000000000000000000e+00 0.000000000000000000e+00 0.000000000000000000e+00 0.000000000000000000e+00 0.000000000000000000e+00 0.000000000000000000e+00 0.000000000000000000e+00 0.000000000000000000e+00 0.000000000000000000e+00 0.000000000000000000e+00 0.000000000000000000e+00 0.000000000000000000e+00 0.000000000000000000e+00 0.000000000000000000e+00 0.000000000000000000e+00 0.000000000000000000e+00 0.000000000000000000e+00 0.000000000000000000e+00 0.000000000000000000e+00 0.000000000000000000e+00 0.000000000000000000e+00 0.000000000000000000e+00 0.000000000000000000e+00 0.000000000000000000e+00 0.000000000000000000e+00 0.000000000000000000e+00 0.000000000000000000e+00 0.000000000000000000e+00 0.000000000000000000e+00 0.000000000000000000e+00 0.000000000000000000e+00 0.000000000000000000e+00 0.000000000000000000e+00 0.000000000000000000e+00 0.000000000000000000e+00 0.000000000000000000e+00 0.000000000000000000e+00 0.000000000000000000e+00
