9.619360351562500000e+02 9.203443603515625000e+02 8.291978759765625000e+02 8.629196166992187500e+02 8.601809082031250000e+02 7.971955566406250000e+02 7.197966308593750000e+02 6.533964843750000000e+02 6.057521972656250000e+02 6.407257690429687500e+02 6.154923095703125000e+02 5.574582519531250000e+02 5.910390625000000000e+02 5.658996582031250000e+02 6.253323974609375000e+02 7.023140869140625000e+02 6.070283813476562500e+02 5.963308105468750000e+02 5.798651733398437500e+02 5.998120117187500000e+02 6.405184326171875000e+02 6.772537841796875000e+02 7.349929199218750000e+02 7.558015747070312500e+02 6.014013671875000000e+02 5.481296386718750000e+02 4.769723510742187500e+02 4.118420410156250000e+02 4.339725952148437500e+02 5.315410156250000000e+02 5.514981689453125000e+02 5.819282226562500000e+02 5.807432250976562500e+02 5.957683105468750000e+02 5.730566406250000000e+02 5.596157836914062500e+02 5.815284423828125000e+02 6.237266845703125000e+02 7.113161621093750000e+02 7.687992553710937500e+02 8.751105346679687500e+02 8.421417236328125000e+02 7.784638671875000000e+02 8.439125976562500000e+02 8.488577880859375000e+02 9.511423950195312500e+02 9.129792480468750000e+02 8.348744506835937500e+02 7.254023437500000000e+02 7.058259277343750000e+02 6.542174072265625000e+02 5.544022827148437500e+02 5.021944274902343750e+02 5.377786865234375000e+02 5.261906738281250000e+02 5.732243652343750000e+02 5.872252807617187500e+02 5.666790771484375000e+02 6.163687133789062500e+02 6.686041259765625000e+02 6.837609252929687500e+02 7.686176757812500000e+02 7.606343994140625000e+02 8.005433349609375000e+02 7.823753051757812500e+02 8.228018188476562500e+02 8.914174194335937500e+02 9.864064941406250000e+02 9.463830566406250000e+02 9.438554077148437500e+02 9.911189575195312500e+02 9.750730590820312500e+02
9.652320556640625000e+02 9.014046020507812500e+02 9.186387329101562500e+02 9.313814086914062500e+02 8.848586425781250000e+02 7.990894775390625000e+02 7.400524902343750000e+02 6.929779663085937500e+02 6.334837036132812500e+02 6.371072998046875000e+02 6.459837036132812500e+02 6.005172119140625000e+02 5.459652099609375000e+02 5.931750488281250000e+02 6.357228393554687500e+02 6.611710815429687500e+02 6.040137329101562500e+02 5.699116821289062500e+02 5.555272827148437500e+02 6.037526245117187500e+02 6.335402832031250000e+02 6.852836914062500000e+02 7.305610351562500000e+02 7.747910766601562500e+02 6.974064331054687500e+02 5.989348144531250000e+02 5.724975585937500000e+02 4.519847106933593750e+02 4.129633178710937500e+02 4.651091918945312500e+02 5.391439819335937500e+02 5.954034423828125000e+02 5.471395874023437500e+02 5.575906982421875000e+02 5.704072875976562500e+02 6.282173461914062500e+02 6.553834228515625000e+02 6.375250244140625000e+02 6.904092407226562500e+02 7.501153564453125000e+02 8.464319458007812500e+02 9.141848144531250000e+02 8.732979125976562500e+02 9.589190063476562500e+02 9.504100341796875000e+02 8.701883544921875000e+02 9.524548339843750000e+02 8.793087768554687500e+02 8.104453735351562500e+02 7.176387329101562500e+02 6.216441650390625000e+02 5.423875122070312500e+02 5.303968505859375000e+02 4.875548706054687500e+02 5.290655517578125000e+02 5.635075073242187500e+02 5.414166259765625000e+02 5.559276123046875000e+02 6.047873535156250000e+02 6.138520507812500000e+02 6.601347656250000000e+02 6.745257568359375000e+02 6.679790039062500000e+02 6.910401611328125000e+02 7.356106567382812500e+02 8.118023071289062500e+02 9.084589843750000000e+02 9.361842041015625000e+02 8.912057495117187500e+02 8.624251098632812500e+02 8.682786865234375000e+02 8.626660156250000000e+02
9.655119628906250000e+02 9.392076416015625000e+02 9.601071777343750000e+02 9.834432373046875000e+02 9.148420410156250000e+02 8.121423950195312500e+02 7.443371582031250000e+02 7.054005126953125000e+02 6.731115112304687500e+02 6.380476074218750000e+02 6.246602783203125000e+02 6.143596801757812500e+02 5.396904296875000000e+02 5.561572265625000000e+02 5.793184204101562500e+02 6.295195922851562500e+02 6.319389648437500000e+02 5.540545654296875000e+02 5.691392822265625000e+02 5.961661987304687500e+02 6.384860229492187500e+02 6.625525512695312500e+02 7.187874755859375000e+02 7.810260009765625000e+02 7.193829345703125000e+02 6.695841064453125000e+02 5.993051147460937500e+02 4.768918151855468750e+02 4.115726928710937500e+02 4.411070861816406250e+02 5.159089355468750000e+02 5.862949829101562500e+02 5.515037841796875000e+02 5.860083618164062500e+02 6.007171020507812500e+02 6.054372558593750000e+02 6.883645019531250000e+02 6.885668945312500000e+02 7.254335327148437500e+02 7.972028198242187500e+02 8.922971801757812500e+02 9.622579345703125000e+02 8.931481933593750000e+02 9.338132324218750000e+02 8.923568115234375000e+02 8.417117919921875000e+02 9.153840942382812500e+02 9.404354248046875000e+02 8.118110961914062500e+02 7.115344238281250000e+02 6.191654052734375000e+02 5.875100097656250000e+02 5.506781616210937500e+02 4.786673889160156250e+02 5.185039672851562500e+02 5.323067626953125000e+02 5.510906372070312500e+02 5.599023437500000000e+02 5.643486328125000000e+02 6.016141357421875000e+02 6.691177368164062500e+02 6.274412231445312500e+02 6.448239746093750000e+02 6.949643554687500000e+02 7.751669311523437500e+02 8.145266113281250000e+02 9.086290893554687500e+02 8.920808715820312500e+02 8.415122680664062500e+02 8.188735351562500000e+02 8.166224975585937500e+02 8.120148925781250000e+02
1.047251708984375000e+03 1.006109619140625000e+03 1.026977172851562500e+03 1.040211303710937500e+03 9.827087402343750000e+02 8.874478759765625000e+02 8.206105346679687500e+02 7.372481689453125000e+02 6.471508178710937500e+02 6.327088012695312500e+02 6.297294921875000000e+02 5.996217651367187500e+02 5.669702758789062500e+02 5.321997680664062500e+02 5.132791748046875000e+02 5.889560546875000000e+02 5.629476928710937500e+02 5.290416259765625000e+02 5.610627441406250000e+02 5.779013061523437500e+02 5.955189208984375000e+02 6.420423583984375000e+02 7.109755859375000000e+02 6.972200927734375000e+02 7.311585693359375000e+02 7.058155517578125000e+02 5.992928466796875000e+02 5.090154418945312500e+02 4.498681945800781250e+02 4.054033813476562500e+02 4.562510986328125000e+02 4.922771911621093750e+02 5.544564819335937500e+02 5.674880371093750000e+02 6.270035400390625000e+02 6.982050781250000000e+02 7.323125610351562500e+02 8.172531127929687500e+02 8.096165771484375000e+02 8.411951293945312500e+02 9.956157226562500000e+02 9.447169189453125000e+02 8.687431640625000000e+02 8.408974609375000000e+02 7.976903076171875000e+02 7.959825439453125000e+02 8.253225708007812500e+02 8.676845703125000000e+02 8.067244262695312500e+02 7.207487792968750000e+02 6.663013916015625000e+02 7.129567871093750000e+02 6.293859863281250000e+02 5.322009277343750000e+02 4.715620727539062500e+02 4.998182067871093750e+02 5.187379150390625000e+02 5.414832763671875000e+02 5.875505371093750000e+02 5.713691406250000000e+02 5.766818237304687500e+02 6.145910644531250000e+02 6.734290771484375000e+02 7.803970947265625000e+02 8.818833618164062500e+02 9.302048339843750000e+02 9.598130493164062500e+02 8.858367309570312500e+02 8.028897705078125000e+02 7.282306518554687500e+02 7.635483398437500000e+02 7.568221435546875000e+02
1.095441040039062500e+03 1.052405151367187500e+03 1.053884887695312500e+03 1.065230224609375000e+03 1.035379760742187500e+03 9.204747314453125000e+02 8.245396728515625000e+02 7.681513061523437500e+02 6.615472412109375000e+02 6.117570800781250000e+02 6.060826416015625000e+02 5.638010253906250000e+02 5.523635253906250000e+02 5.596920166015625000e+02 5.150694580078125000e+02 5.778249511718750000e+02 5.159990234375000000e+02 5.147907714843750000e+02 5.429172973632812500e+02 5.561357421875000000e+02 5.905886230468750000e+02 6.428034667968750000e+02 7.000244750976562500e+02 6.550297851562500000e+02 6.917763671875000000e+02 7.072356567382812500e+02 6.009578857421875000e+02 4.855599975585937500e+02 4.264649658203125000e+02 4.042915039062500000e+02 4.819893493652343750e+02 5.512013549804687500e+02 5.347926025390625000e+02 5.605889892578125000e+02 5.929604492187500000e+02 6.872831420898437500e+02 7.851476440429687500e+02 8.719299316406250000e+02 8.754079589843750000e+02 9.246571044921875000e+02 9.806741943359375000e+02 9.029699707031250000e+02 8.877210083007812500e+02 8.064183959960937500e+02 7.828345947265625000e+02 7.899345092773437500e+02 8.084400634765625000e+02 8.404378662109375000e+02 8.289184570312500000e+02 7.280078125000000000e+02 7.015991210937500000e+02 7.568103027343750000e+02 6.535197143554687500e+02 5.580656127929687500e+02 4.756271057128906250e+02 4.995367431640625000e+02 5.144218750000000000e+02 5.512159423828125000e+02 5.594482421875000000e+02 5.434004516601562500e+02 6.040357055664062500e+02 6.570549926757812500e+02 7.034838256835937500e+02 7.651965332031250000e+02 8.526280517578125000e+02 8.943820190429687500e+02 9.412174072265625000e+02 8.835450439453125000e+02 7.987642822265625000e+02 7.164242553710937500e+02 7.269639282226562500e+02 7.625506591796875000e+02
1.207416992187500000e+03 1.172600585937500000e+03 1.153916625976562500e+03 1.106635009765625000e+03 1.030080200195312500e+03 9.216622314453125000e+02 8.168603515625000000e+02 7.463413085937500000e+02 6.783985595703125000e+02 6.440547485351562500e+02 6.189087524414062500e+02 6.006118774414062500e+02 6.636612548828125000e+02 6.142691040039062500e+02 5.335820312500000000e+02 5.136605834960937500e+02 4.684899291992187500e+02 5.430056762695312500e+02 6.198145141601562500e+02 6.633356323242187500e+02 6.465763549804687500e+02 6.445241699218750000e+02 6.469613647460937500e+02 6.419262695312500000e+02 6.298531494140625000e+02 6.372045288085937500e+02 5.566351928710937500e+02 4.387831726074218750e+02 3.992711181640625000e+02 4.647833862304687500e+02 5.202328491210937500e+02 6.137147827148437500e+02 6.273239135742187500e+02 5.609038085937500000e+02 5.978247680664062500e+02 6.769040527343750000e+02 7.973450927734375000e+02 8.839740600585937500e+02 9.638827514648437500e+02 1.017747680664062500e+03 9.275720214843750000e+02 8.263763427734375000e+02 7.734183959960937500e+02 7.933685302734375000e+02 7.451032714843750000e+02 7.601605224609375000e+02 7.924664306640625000e+02 8.394501953125000000e+02 8.752687988281250000e+02 7.982484130859375000e+02 7.749494628906250000e+02 7.990964965820312500e+02 6.988959960937500000e+02 6.042630615234375000e+02 5.384841918945312500e+02 4.641383972167968750e+02 5.005161132812500000e+02 5.391486206054687500e+02 5.336385498046875000e+02 5.714963989257812500e+02 5.991926269531250000e+02 6.237794189453125000e+02 6.787802124023437500e+02 7.484138183593750000e+02 8.485318603515625000e+02 9.097277832031250000e+02 9.378001708984375000e+02 8.460997924804687500e+02 7.743869628906250000e+02 7.121944580078125000e+02 6.935054931640625000e+02 7.327319335937500000e+02
1.258705566406250000e+03 1.237478881835937500e+03 1.125546630859375000e+03 1.042000854492187500e+03 9.827696533203125000e+02 9.233560180664062500e+02 8.496115722656250000e+02 7.784468383789062500e+02 6.927593994140625000e+02 6.499011840820312500e+02 6.247401123046875000e+02 6.623156738281250000e+02 6.332419433593750000e+02 6.668891601562500000e+02 5.835756835937500000e+02 5.016909484863281250e+02 5.113110351562500000e+02 5.504423828125000000e+02 6.276733398437500000e+02 6.976091918945312500e+02 6.022868652343750000e+02 5.289341430664062500e+02 5.756735839843750000e+02 6.543413085937500000e+02 5.400664672851562500e+02 5.107236022949218750e+02 5.288786621093750000e+02 4.198172607421875000e+02 4.473044433593750000e+02 4.647542114257812500e+02 5.075630798339843750e+02 5.742642822265625000e+02 7.014610595703125000e+02 6.303804321289062500e+02 5.787430419921875000e+02 6.301684570312500000e+02 7.246773681640625000e+02 7.860270996093750000e+02 8.651641845703125000e+02 9.318538208007812500e+02 8.668913574218750000e+02 7.829899291992187500e+02 7.102929687500000000e+02 6.744746704101562500e+02 7.070491333007812500e+02 7.105873413085937500e+02 7.374733886718750000e+02 7.924684448242187500e+02 9.294649047851562500e+02 9.317572631835937500e+02 8.523248901367187500e+02 7.986963500976562500e+02 6.930330810546875000e+02 5.980625000000000000e+02 5.374020385742187500e+02 4.729971923828125000e+02 4.902514343261718750e+02 5.075404052734375000e+02 5.385792846679687500e+02 5.787116699218750000e+02 6.072604980468750000e+02 6.506923828125000000e+02 6.984093017578125000e+02 7.728020629882812500e+02 8.861510009765625000e+02 9.569896850585937500e+02 9.784470825195312500e+02 8.810076904296875000e+02 7.832838134765625000e+02 6.950220947265625000e+02 6.557077636718750000e+02 7.190649414062500000e+02
1.266469116210937500e+03 1.214671630859375000e+03 1.129829345703125000e+03 1.038279907226562500e+03 9.639910888671875000e+02 8.925740966796875000e+02 8.429724731445312500e+02 8.065535888671875000e+02 7.140581665039062500e+02 6.797508544921875000e+02 6.819653930664062500e+02 6.807670898437500000e+02 6.199449462890625000e+02 6.641861572265625000e+02 6.058824462890625000e+02 5.524368896484375000e+02 4.849953918457031250e+02 5.663538818359375000e+02 6.418801269531250000e+02 6.909025268554687500e+02 5.918201904296875000e+02 5.108335266113281250e+02 5.740834350585937500e+02 6.542844238281250000e+02 5.755974731445312500e+02 4.804161376953125000e+02 5.140786132812500000e+02 4.237878417968750000e+02 4.607010803222656250e+02 5.047835998535156250e+02 5.221712646484375000e+02 5.706884765625000000e+02 7.123966064453125000e+02 6.537452392578125000e+02 6.070032958984375000e+02 6.304120483398437500e+02 6.774560546875000000e+02 7.543282470703125000e+02 8.546618652343750000e+02 9.487781372070312500e+02 8.908119506835937500e+02 8.056263427734375000e+02 7.215443115234375000e+02 6.812028198242187500e+02 6.671900024414062500e+02 6.909310913085937500e+02 7.354586791992187500e+02 7.765549316406250000e+02 9.012746582031250000e+02 9.432902221679687500e+02 8.207177734375000000e+02 7.305330810546875000e+02 6.664355468750000000e+02 5.660361328125000000e+02 5.101481323242187500e+02 4.677368469238281250e+02 4.846441345214843750e+02 5.184157714843750000e+02 5.723673095703125000e+02 5.595838623046875000e+02 5.980313720703125000e+02 6.256537475585937500e+02 6.677362060546875000e+02 7.266709594726562500e+02 8.436913452148437500e+02 9.145937500000000000e+02 9.352725219726562500e+02 8.410476684570312500e+02 7.700897216796875000e+02 7.182785034179687500e+02 6.459411010742187500e+02 6.782850341796875000e+02
1.298729858398437500e+03 1.218686645507812500e+03 1.115979370117187500e+03 1.045415405273437500e+03 1.023371948242187500e+03 1.026076049804687500e+03 9.605256347656250000e+02 8.669589843750000000e+02 7.946519165039062500e+02 7.700471191406250000e+02 7.326284179687500000e+02 6.829048461914062500e+02 6.141743164062500000e+02 6.187804565429687500e+02 5.661990966796875000e+02 5.472994995117187500e+02 4.955509338378906250e+02 4.979243469238281250e+02 5.764961547851562500e+02 6.070203857421875000e+02 5.451064453125000000e+02 4.823818969726562500e+02 5.374589233398437500e+02 5.954037475585937500e+02 5.956348266601562500e+02 5.022604980468750000e+02 4.562707214355468750e+02 4.274723510742187500e+02 4.389087219238281250e+02 5.126566772460937500e+02 6.207792968750000000e+02 5.963031616210937500e+02 7.287722167968750000e+02 7.729505615234375000e+02 6.774183349609375000e+02 6.401502685546875000e+02 7.349788208007812500e+02 7.544047851562500000e+02 8.282032470703125000e+02 9.418555908203125000e+02 8.994479980468750000e+02 8.132043457031250000e+02 7.694294433593750000e+02 7.149208984375000000e+02 6.451176757812500000e+02 6.495789794921875000e+02 7.123634033203125000e+02 7.710085449218750000e+02 8.739167480468750000e+02 9.631718750000000000e+02 8.702785034179687500e+02 7.990068359375000000e+02 7.305135498046875000e+02 6.656112060546875000e+02 5.745139770507812500e+02 4.860789489746093750e+02 4.703924865722656250e+02 4.975776367187500000e+02 5.435510253906250000e+02 5.379898071289062500e+02 5.725559082031250000e+02 5.934671020507812500e+02 6.528786621093750000e+02 7.012793579101562500e+02 7.777630004882812500e+02 8.103018188476562500e+02 8.486775512695312500e+02 7.662566528320312500e+02 7.069628906250000000e+02 6.585040893554687500e+02 6.191081542968750000e+02 6.532767333984375000e+02
1.323541015625000000e+03 1.242414794921875000e+03 1.165954467773437500e+03 1.108586669921875000e+03 1.049387207031250000e+03 1.026687011718750000e+03 9.642468872070312500e+02 8.924266967773437500e+02 8.096791992187500000e+02 7.789042968750000000e+02 7.359830322265625000e+02 6.819409179687500000e+02 6.117548217773437500e+02 6.057758789062500000e+02 5.915869750976562500e+02 5.385692749023437500e+02 4.950920410156250000e+02 5.120605468750000000e+02 5.461579589843750000e+02 6.014487304687500000e+02 5.597465209960937500e+02 4.713130187988281250e+02 5.177734985351562500e+02 5.594237670898437500e+02 5.867470703125000000e+02 5.250170288085937500e+02 4.404533081054687500e+02 4.173934936523437500e+02 5.034807128906250000e+02 5.349388427734375000e+02 6.622021484375000000e+02 6.410828857421875000e+02 7.509919433593750000e+02 8.031734619140625000e+02 7.079324951171875000e+02 6.735058593750000000e+02 7.950364990234375000e+02 8.183801269531250000e+02 8.960060424804687500e+02 9.601832885742187500e+02 8.863391113281250000e+02 7.911961669921875000e+02 7.166954345703125000e+02 6.690850830078125000e+02 6.252877197265625000e+02 6.581282958984375000e+02 7.342927246093750000e+02 7.909569091796875000e+02 8.999235839843750000e+02 9.645318603515625000e+02 9.318434448242187500e+02 8.608825683593750000e+02 7.501410522460937500e+02 6.373604125976562500e+02 5.440588378906250000e+02 4.951612854003906250e+02 4.574634399414062500e+02 4.904844360351562500e+02 5.214405517578125000e+02 5.360825805664062500e+02 5.591217041015625000e+02 5.873610839843750000e+02 6.344371948242187500e+02 6.801249389648437500e+02 7.272613525390625000e+02 7.828596191406250000e+02 8.483648071289062500e+02 8.066458740234375000e+02 7.506047363281250000e+02 6.918458862304687500e+02 6.109719238281250000e+02 6.421997070312500000e+02
1.233286621093750000e+03 1.259126953125000000e+03 1.183561279296875000e+03 1.107042968750000000e+03 1.070988159179687500e+03 1.060205810546875000e+03 1.006616516113281250e+03 8.913114013671875000e+02 7.507695922851562500e+02 7.053829956054687500e+02 7.132995605468750000e+02 6.608736572265625000e+02 6.411775512695312500e+02 5.696797485351562500e+02 5.908305053710937500e+02 6.243285522460937500e+02 5.379360351562500000e+02 4.601509399414062500e+02 4.952334899902343750e+02 5.477830200195312500e+02 5.394868164062500000e+02 4.783309326171875000e+02 4.739054565429687500e+02 5.376124267578125000e+02 5.000622558593750000e+02 4.693087158203125000e+02 4.169667968750000000e+02 4.751535949707031250e+02 4.977179870605468750e+02 5.474896240234375000e+02 6.478341674804687500e+02 7.238344726562500000e+02 6.803229980468750000e+02 7.535048828125000000e+02 7.754361572265625000e+02 7.160066528320312500e+02 8.098035278320312500e+02 9.182361450195312500e+02 8.690086059570312500e+02 9.237699584960937500e+02 9.074260253906250000e+02 8.040443725585937500e+02 7.355107421875000000e+02 6.556849975585937500e+02 6.314149169921875000e+02 6.330932006835937500e+02 6.763085327148437500e+02 7.538803710937500000e+02 9.179658203125000000e+02 8.770708007812500000e+02 9.057792968750000000e+02 9.009663085937500000e+02 7.764812011718750000e+02 6.761468505859375000e+02 6.071138916015625000e+02 5.661243896484375000e+02 4.618350524902343750e+02 4.877771606445312500e+02 5.005781250000000000e+02 5.134744873046875000e+02 5.700070800781250000e+02 5.827282714843750000e+02 6.198931274414062500e+02 6.314580688476562500e+02 6.832908935546875000e+02 7.694456176757812500e+02 8.293413696289062500e+02 7.876886596679687500e+02 7.131160888671875000e+02 6.597470703125000000e+02 6.033296508789062500e+02 5.875792236328125000e+02
1.123805541992187500e+03 1.194457397460937500e+03 1.192768798828125000e+03 1.177119140625000000e+03 1.126424072265625000e+03 1.080311767578125000e+03 1.040352783203125000e+03 9.409556884765625000e+02 7.617220458984375000e+02 7.042359619140625000e+02 6.671352539062500000e+02 6.376937255859375000e+02 6.297396240234375000e+02 5.739036254882812500e+02 5.351118164062500000e+02 6.136223144531250000e+02 5.079481811523437500e+02 4.689020690917968750e+02 5.448660888671875000e+02 4.938067016601562500e+02 4.411125488281250000e+02 4.487826538085937500e+02 4.743124389648437500e+02 4.895073242187500000e+02 4.696393432617187500e+02 4.235662536621093750e+02 4.318763732910156250e+02 4.630296325683593750e+02 4.918959960937500000e+02 5.408128662109375000e+02 6.055886840820312500e+02 7.044172973632812500e+02 6.336304321289062500e+02 6.965260620117187500e+02 7.886904907226562500e+02 8.109670410156250000e+02 8.128707275390625000e+02 9.274130249023437500e+02 8.658947753906250000e+02 8.593110351562500000e+02 8.923836669921875000e+02 8.147723999023437500e+02 7.451816406250000000e+02 6.675781860351562500e+02 6.172656250000000000e+02 6.146176757812500000e+02 6.819809570312500000e+02 7.720702514648437500e+02 8.575984497070312500e+02 8.032667846679687500e+02 8.065980224609375000e+02 8.996138305664062500e+02 8.652871093750000000e+02 7.882765502929687500e+02 6.857697753906250000e+02 5.995960693359375000e+02 4.717120666503906250e+02 4.561396179199218750e+02 4.937584228515625000e+02 4.925021057128906250e+02 5.215505371093750000e+02 5.760608520507812500e+02 5.729307861328125000e+02 6.078656005859375000e+02 7.102601928710937500e+02 7.719263916015625000e+02 8.013097534179687500e+02 7.340371093750000000e+02 6.965895385742187500e+02 6.975535888671875000e+02 6.283897705078125000e+02 5.497224121093750000e+02
1.095945556640625000e+03 1.168242919921875000e+03 1.153334472656250000e+03 1.158457519531250000e+03 1.116714355468750000e+03 1.053933837890625000e+03 1.007629882812500000e+03 9.599560546875000000e+02 7.892164916992187500e+02 7.386453857421875000e+02 6.898530273437500000e+02 6.599881591796875000e+02 6.624410400390625000e+02 5.919411621093750000e+02 5.243126220703125000e+02 5.983238525390625000e+02 5.002273254394531250e+02 4.827698059082031250e+02 5.660411376953125000e+02 5.538547363281250000e+02 4.691816406250000000e+02 4.384104003906250000e+02 4.371436767578125000e+02 4.516424560546875000e+02 4.195136108398437500e+02 3.977626647949218750e+02 4.573251037597656250e+02 4.736644287109375000e+02 4.963575744628906250e+02 5.358833618164062500e+02 5.987270507812500000e+02 6.207825927734375000e+02 5.997964477539062500e+02 6.750943603515625000e+02 7.434973144531250000e+02 8.401246948242187500e+02 8.558403930664062500e+02 8.936763305664062500e+02 8.318929443359375000e+02 8.322424316406250000e+02 8.468723754882812500e+02 8.024536743164062500e+02 7.739394531250000000e+02 6.924039306640625000e+02 6.111547851562500000e+02 6.037318115234375000e+02 6.737709350585937500e+02 7.594904785156250000e+02 8.027353515625000000e+02 7.571027832031250000e+02 8.091210327148437500e+02 8.649967041015625000e+02 8.946598510742187500e+02 8.315726318359375000e+02 7.346983642578125000e+02 6.464107666015625000e+02 4.808273620605468750e+02 4.504667968750000000e+02 4.515464477539062500e+02 4.821432495117187500e+02 5.255711059570312500e+02 5.648939208984375000e+02 5.569324951171875000e+02 5.993976440429687500e+02 6.824901733398437500e+02 7.362847900390625000e+02 7.540925292968750000e+02 7.537086181640625000e+02 6.485729980468750000e+02 6.267760009765625000e+02 5.840315551757812500e+02 5.338851318359375000e+02
1.042811767578125000e+03 1.127660400390625000e+03 1.070624389648437500e+03 1.095342285156250000e+03 1.059759277343750000e+03 1.068982299804687500e+03 1.017954895019531250e+03 9.367128906250000000e+02 8.144158935546875000e+02 7.534547119140625000e+02 7.093598632812500000e+02 6.555607299804687500e+02 6.053220825195312500e+02 5.654030761718750000e+02 5.125217285156250000e+02 5.869902954101562500e+02 5.314429321289062500e+02 4.742854614257812500e+02 5.244233398437500000e+02 5.846205444335937500e+02 5.135188598632812500e+02 5.098526611328125000e+02 4.586199645996093750e+02 3.878085327148437500e+02 4.271029968261718750e+02 4.370391845703125000e+02 4.756423950195312500e+02 4.971119995117187500e+02 5.186925659179687500e+02 5.021817932128906250e+02 5.309166259765625000e+02 5.750770263671875000e+02 7.182287597656250000e+02 6.830905151367187500e+02 7.782194824218750000e+02 8.486454467773437500e+02 8.983743896484375000e+02 8.343668212890625000e+02 7.324622802734375000e+02 7.410570068359375000e+02 7.650352783203125000e+02 7.191197509765625000e+02 7.907763671875000000e+02 7.305872192382812500e+02 6.117651367187500000e+02 5.739098510742187500e+02 6.523757934570312500e+02 7.135394287109375000e+02 6.949140625000000000e+02 6.984474487304687500e+02 7.686005859375000000e+02 8.513352661132812500e+02 8.387429199218750000e+02 8.444003295898437500e+02 7.644749755859375000e+02 6.801893920898437500e+02 5.492998046875000000e+02 4.816443786621093750e+02 4.322113647460937500e+02 4.671514587402343750e+02 4.999000244140625000e+02 5.247901000976562500e+02 5.314362182617187500e+02 5.725739746093750000e+02 6.445131225585937500e+02 7.049526977539062500e+02 7.551478271484375000e+02 7.207165527343750000e+02 6.655702514648437500e+02 6.328429565429687500e+02 5.710305786132812500e+02 5.104052429199218750e+02
9.976025390625000000e+02 1.052557861328125000e+03 1.083347778320312500e+03 1.004022583007812500e+03 1.001885864257812500e+03 9.849445800781250000e+02 9.742403564453125000e+02 9.347244873046875000e+02 8.277696533203125000e+02 7.533501586914062500e+02 7.246285400390625000e+02 6.607569580078125000e+02 6.102013549804687500e+02 5.638676757812500000e+02 4.978790893554687500e+02 5.475286254882812500e+02 4.810246887207031250e+02 4.458638916015625000e+02 5.146242675781250000e+02 5.893393554687500000e+02 5.827133178710937500e+02 5.065123596191406250e+02 4.915711975097656250e+02 4.922916259765625000e+02 4.259838256835937500e+02 4.215890502929687500e+02 4.503329467773437500e+02 4.552703857421875000e+02 4.774994201660156250e+02 5.465125122070312500e+02 5.468662719726562500e+02 6.310765991210937500e+02 7.413101806640625000e+02 7.897525634765625000e+02 8.307658081054687500e+02 7.928207397460937500e+02 8.397030029296875000e+02 7.553507080078125000e+02 7.478498535156250000e+02 6.515526123046875000e+02 6.830089721679687500e+02 6.558210449218750000e+02 7.364340820312500000e+02 7.613132324218750000e+02 6.396264648437500000e+02 5.656578979492187500e+02 6.175850219726562500e+02 6.574775390625000000e+02 6.090769653320312500e+02 6.605043945312500000e+02 7.644334106445312500e+02 8.408765258789062500e+02 7.981149902343750000e+02 8.014951171875000000e+02 7.554157714843750000e+02 6.907723388671875000e+02 5.407160644531250000e+02 4.771190795898437500e+02 4.301040649414062500e+02 4.814552307128906250e+02 4.770560607910156250e+02 4.957288513183593750e+02 5.440888061523437500e+02 5.886098632812500000e+02 6.191331787109375000e+02 6.711036987304687500e+02 7.306182861328125000e+02 7.214117431640625000e+02 6.889666748046875000e+02 6.496926269531250000e+02 5.522344360351562500e+02 4.870538330078125000e+02
9.865961303710937500e+02 1.016366821289062500e+03 1.028482177734375000e+03 9.749134521484375000e+02 9.685811767578125000e+02 9.483503417968750000e+02 9.340451049804687500e+02 8.808474121093750000e+02 8.028199462890625000e+02 7.347735595703125000e+02 6.964128417968750000e+02 6.469306030273437500e+02 6.351906738281250000e+02 5.721673583984375000e+02 4.981234130859375000e+02 5.118276062011718750e+02 4.470224914550781250e+02 4.355995178222656250e+02 5.023969421386718750e+02 5.879557495117187500e+02 5.647806396484375000e+02 4.896638183593750000e+02 5.319762573242187500e+02 5.660631103515625000e+02 4.416056518554687500e+02 4.003883361816406250e+02 4.055662231445312500e+02 4.523717346191406250e+02 4.976551208496093750e+02 5.730264282226562500e+02 5.811287231445312500e+02 6.393826293945312500e+02 7.416341552734375000e+02 8.449453735351562500e+02 8.121684570312500000e+02 7.593837280273437500e+02 7.997998657226562500e+02 7.282282104492187500e+02 7.307557373046875000e+02 6.486760253906250000e+02 6.358491821289062500e+02 6.253979492187500000e+02 7.152531127929687500e+02 7.530473022460937500e+02 6.279508666992187500e+02 5.565720825195312500e+02 5.945666503906250000e+02 6.283017578125000000e+02 5.659217529296875000e+02 6.464622802734375000e+02 7.559168090820312500e+02 8.442842407226562500e+02 7.986130981445312500e+02 7.842227783203125000e+02 7.445430908203125000e+02 6.562644042968750000e+02 5.144062500000000000e+02 4.576590881347656250e+02 4.296562500000000000e+02 4.608420104980468750e+02 4.929163208007812500e+02 4.994255371093750000e+02 5.543539428710937500e+02 5.570100097656250000e+02 6.252140502929687500e+02 6.363781738281250000e+02 6.868385009765625000e+02 6.772193603515625000e+02 6.852081298828125000e+02 6.088034057617187500e+02 5.322834472656250000e+02 4.866879882812500000e+02
9.215942993164062500e+02 9.778150634765625000e+02 9.360604858398437500e+02 9.113580932617187500e+02 9.074901123046875000e+02 8.514248046875000000e+02 8.761550292968750000e+02 8.283106079101562500e+02 7.642467651367187500e+02 6.751260375976562500e+02 6.182823486328125000e+02 5.788079833984375000e+02 6.122489013671875000e+02 6.035093383789062500e+02 5.331172485351562500e+02 4.899201965332031250e+02 4.422713623046875000e+02 4.985556640625000000e+02 5.718361206054687500e+02 6.144137573242187500e+02 5.833015747070312500e+02 6.247404785156250000e+02 6.102153320312500000e+02 6.017461547851562500e+02 5.414235229492187500e+02 4.974784545898437500e+02 4.224353637695312500e+02 4.282299499511718750e+02 4.819983825683593750e+02 5.451049804687500000e+02 6.238471069335937500e+02 6.724560546875000000e+02 7.343570556640625000e+02 8.520407714843750000e+02 7.510413818359375000e+02 7.199830322265625000e+02 7.217254638671875000e+02 6.511091308593750000e+02 6.943704223632812500e+02 6.962760009765625000e+02 5.805344238281250000e+02 5.705136718750000000e+02 6.280650024414062500e+02 7.133189086914062500e+02 6.826389770507812500e+02 5.970848388671875000e+02 5.504815673828125000e+02 5.351247558593750000e+02 5.594396972656250000e+02 6.359024658203125000e+02 7.308004760742187500e+02 7.522387084960937500e+02 8.129562988281250000e+02 7.765982666015625000e+02 6.775175781250000000e+02 5.969976806640625000e+02 5.071381835937500000e+02 4.560159606933593750e+02 4.254575805664062500e+02 4.477322387695312500e+02 4.633892517089843750e+02 4.926660766601562500e+02 5.228438720703125000e+02 5.345891113281250000e+02 5.843231201171875000e+02 6.173451538085937500e+02 6.365112304687500000e+02 6.467282714843750000e+02 6.640140991210937500e+02 5.949808959960937500e+02 5.389667968750000000e+02 5.049599304199218750e+02
9.493214721679687500e+02 9.205155029296875000e+02 8.892872314453125000e+02 8.730377807617187500e+02 8.688988647460937500e+02 8.113550415039062500e+02 8.556590576171875000e+02 8.134147949218750000e+02 7.538068847656250000e+02 6.549929809570312500e+02 5.969441528320312500e+02 5.495106811523437500e+02 5.626167602539062500e+02 5.612781982421875000e+02 5.398425292968750000e+02 4.736295776367187500e+02 4.593652954101562500e+02 4.920353393554687500e+02 5.408098754882812500e+02 5.805310058593750000e+02 6.470513916015625000e+02 6.445415039062500000e+02 5.904479980468750000e+02 5.681915283203125000e+02 4.981996154785156250e+02 4.506882934570312500e+02 4.125759277343750000e+02 4.259922485351562500e+02 4.839923706054687500e+02 5.477606201171875000e+02 6.150803222656250000e+02 6.914650268554687500e+02 7.096616210937500000e+02 8.335377197265625000e+02 7.333803710937500000e+02 6.772611083984375000e+02 6.876832275390625000e+02 6.144410400390625000e+02 6.373818359375000000e+02 6.648353881835937500e+02 6.200970458984375000e+02 5.674967651367187500e+02 6.043570556640625000e+02 7.200920410156250000e+02 7.106365356445312500e+02 6.437172851562500000e+02 5.694185180664062500e+02 5.260835571289062500e+02 5.700603027343750000e+02 6.509506225585937500e+02 6.602367553710937500e+02 6.991675415039062500e+02 7.930184326171875000e+02 8.055710449218750000e+02 7.297791137695312500e+02 6.485463867187500000e+02 5.200537109375000000e+02 4.901648559570312500e+02 4.277994384765625000e+02 4.382555541992187500e+02 4.520513000488281250e+02 4.886690063476562500e+02 5.081160888671875000e+02 5.153881835937500000e+02 5.641589965820312500e+02 6.140380859375000000e+02 6.112575683593750000e+02 6.273760986328125000e+02 6.480206909179687500e+02 6.066352539062500000e+02 5.444349975585937500e+02 4.985451049804687500e+02
8.957245483398437500e+02 8.443905639648437500e+02 8.207329101562500000e+02 7.867073364257812500e+02 7.955357666015625000e+02 7.586967773437500000e+02 8.046481323242187500e+02 7.753691406250000000e+02 7.198603515625000000e+02 6.351828613281250000e+02 5.529349365234375000e+02 5.104322509765625000e+02 4.949358825683593750e+02 5.032766113281250000e+02 5.016116943359375000e+02 4.430812988281250000e+02 4.717132873535156250e+02 5.448319091796875000e+02 6.058890991210937500e+02 6.528759765625000000e+02 6.415563964843750000e+02 6.223149414062500000e+02 5.999656982421875000e+02 5.375483398437500000e+02 3.959010009765625000e+02 4.260551452636718750e+02 4.641556091308593750e+02 5.014886169433593750e+02 5.209291992187500000e+02 5.363262939453125000e+02 5.609965820312500000e+02 6.431923828125000000e+02 6.442332153320312500e+02 7.483692626953125000e+02 7.003291015625000000e+02 6.464606323242187500e+02 6.582987060546875000e+02 5.890635986328125000e+02 5.677946777343750000e+02 6.314396972656250000e+02 5.728729248046875000e+02 5.519443359375000000e+02 5.652056884765625000e+02 6.297256469726562500e+02 6.836773681640625000e+02 6.659911499023437500e+02 6.335184326171875000e+02 5.951399536132812500e+02 5.248811035156250000e+02 5.511676025390625000e+02 6.366876831054687500e+02 6.643650512695312500e+02 6.811215209960937500e+02 7.577966308593750000e+02 7.335164794921875000e+02 6.451051025390625000e+02 5.511102294921875000e+02 5.225599365234375000e+02 4.618536987304687500e+02 4.198068237304687500e+02 4.430068359375000000e+02 4.618323974609375000e+02 4.912473449707031250e+02 5.120503540039062500e+02 5.350576782226562500e+02 5.599006958007812500e+02 5.875109863281250000e+02 6.028362426757812500e+02 6.522370605468750000e+02 6.540827636718750000e+02 5.556509399414062500e+02 4.985135192871093750e+02
8.618056640625000000e+02 7.806734619140625000e+02 7.402436523437500000e+02 7.174089355468750000e+02 7.171395874023437500e+02 7.124027099609375000e+02 7.448985595703125000e+02 7.152353515625000000e+02 6.832754516601562500e+02 6.361334228515625000e+02 5.580024414062500000e+02 5.145059814453125000e+02 4.960460815429687500e+02 4.661114196777343750e+02 4.500704345703125000e+02 4.316618041992187500e+02 4.807227478027343750e+02 5.466990966796875000e+02 5.898781738281250000e+02 6.137864379882812500e+02 5.232374267578125000e+02 4.848128051757812500e+02 4.865932312011718750e+02 5.207442626953125000e+02 3.912196960449218750e+02 4.227438659667968750e+02 4.662708435058593750e+02 5.039481201171875000e+02 4.931515197753906250e+02 4.894125061035156250e+02 4.838578491210937500e+02 5.065440368652343750e+02 5.860838623046875000e+02 6.397584838867187500e+02 6.011926879882812500e+02 6.041098632812500000e+02 6.497186279296875000e+02 6.243403320312500000e+02 5.552828369140625000e+02 5.902196044921875000e+02 5.157673950195312500e+02 5.757081909179687500e+02 6.444143066406250000e+02 7.050644531250000000e+02 7.166832275390625000e+02 6.414838256835937500e+02 5.794669799804687500e+02 5.562779541015625000e+02 5.303697509765625000e+02 5.458598022460937500e+02 5.940833129882812500e+02 6.230157470703125000e+02 6.718756713867187500e+02 7.208792114257812500e+02 6.941272583007812500e+02 6.777933959960937500e+02 5.762955322265625000e+02 5.260673217773437500e+02 4.672729797363281250e+02 4.176051330566406250e+02 4.251931152343750000e+02 4.548024291992187500e+02 4.699129028320312500e+02 4.862512817382812500e+02 5.067399902343750000e+02 5.428938598632812500e+02 5.615936889648437500e+02 6.099688720703125000e+02 6.410037231445312500e+02 6.489793701171875000e+02 5.835546875000000000e+02 5.029143371582031250e+02
8.245473632812500000e+02 7.610848388671875000e+02 7.123756103515625000e+02 6.909628906250000000e+02 6.959973144531250000e+02 6.808477172851562500e+02 7.007155761718750000e+02 6.782504272460937500e+02 6.629357299804687500e+02 6.171307373046875000e+02 5.448143310546875000e+02 4.880238037109375000e+02 4.755070800781250000e+02 4.362320861816406250e+02 4.532423400878906250e+02 4.924636535644531250e+02 4.288828125000000000e+02 4.766415710449218750e+02 5.278746337890625000e+02 5.740493164062500000e+02 5.014672851562500000e+02 4.029527893066406250e+02 4.266954650878906250e+02 4.680507507324218750e+02 4.089616699218750000e+02 4.309115905761718750e+02 5.078287353515625000e+02 5.684220581054687500e+02 5.409755859375000000e+02 5.343604736328125000e+02 5.187480468750000000e+02 5.647641601562500000e+02 5.484783325195312500e+02 5.862233276367187500e+02 5.649943237304687500e+02 5.863807373046875000e+02 6.109737548828125000e+02 6.176518554687500000e+02 5.532943115234375000e+02 5.470495605468750000e+02 5.366422119140625000e+02 5.601059570312500000e+02 6.439254760742187500e+02 6.955903320312500000e+02 7.062172851562500000e+02 6.177387695312500000e+02 5.432892456054687500e+02 5.106459960937500000e+02 5.035816650390625000e+02 5.663084106445312500e+02 6.214619140625000000e+02 5.991623535156250000e+02 6.523941650390625000e+02 7.218659667968750000e+02 6.717766723632812500e+02 6.881064453125000000e+02 5.818785400390625000e+02 5.357065429687500000e+02 5.018901367187500000e+02 4.320510864257812500e+02 4.208201904296875000e+02 4.344348754882812500e+02 4.643389587402343750e+02 4.809189453125000000e+02 5.048677673339843750e+02 5.293172607421875000e+02 5.548308105468750000e+02 5.641497802734375000e+02 5.877747192382812500e+02 6.083809814453125000e+02 5.814707031250000000e+02 5.174298095703125000e+02
8.972069702148437500e+02 8.323399658203125000e+02 7.730902709960937500e+02 6.978554687500000000e+02 6.418668212890625000e+02 6.277067871093750000e+02 6.158830566406250000e+02 6.214483032226562500e+02 5.668537597656250000e+02 5.329558105468750000e+02 5.132746582031250000e+02 4.536649780273437500e+02 4.940036926269531250e+02 5.410942993164062500e+02 5.715886230468750000e+02 5.423715209960937500e+02 4.596781921386718750e+02 4.052697753906250000e+02 4.198956298828125000e+02 4.337880249023437500e+02 4.253252563476562500e+02 3.834761962890625000e+02 3.996030883789062500e+02 3.888248901367187500e+02 3.841234741210937500e+02 4.485387878417968750e+02 5.334453125000000000e+02 5.830869140625000000e+02 6.203087158203125000e+02 6.203745117187500000e+02 5.712968750000000000e+02 6.444323730468750000e+02 6.105892333984375000e+02 6.193403320312500000e+02 5.997907714843750000e+02 5.691179199218750000e+02 5.387948608398437500e+02 5.826956787109375000e+02 5.676959228515625000e+02 5.352084960937500000e+02 5.426040039062500000e+02 6.061812133789062500e+02 6.622939453125000000e+02 7.430685424804687500e+02 7.162749633789062500e+02 6.360960693359375000e+02 5.759711914062500000e+02 5.029128723144531250e+02 5.402539062500000000e+02 5.316492919921875000e+02 5.465677490234375000e+02 6.112829589843750000e+02 6.830188598632812500e+02 7.375820312500000000e+02 6.837346191406250000e+02 5.939805908203125000e+02 6.090550537109375000e+02 5.266367797851562500e+02 5.090609130859375000e+02 4.668283081054687500e+02 4.304891357421875000e+02 4.110619201660156250e+02 4.510316467285156250e+02 4.551200561523437500e+02 5.066896057128906250e+02 5.249965820312500000e+02 5.171750488281250000e+02 5.008179626464843750e+02 4.885574035644531250e+02 5.035351867675781250e+02 5.209813842773437500e+02 4.898155822753906250e+02
9.519831542968750000e+02 8.705124511718750000e+02 7.803098144531250000e+02 7.040256958007812500e+02 6.464362182617187500e+02 6.136235961914062500e+02 5.919225463867187500e+02 5.919222412109375000e+02 5.491051025390625000e+02 5.116457824707031250e+02 4.756704406738281250e+02 4.642471923828125000e+02 5.073251647949218750e+02 5.752579345703125000e+02 6.278541870117187500e+02 5.513890991210937500e+02 5.146077880859375000e+02 4.523238525390625000e+02 4.255593261718750000e+02 3.972017822265625000e+02 4.096963195800781250e+02 3.933498229980468750e+02 4.294551391601562500e+02 3.906054077148437500e+02 4.404680786132812500e+02 5.088183288574218750e+02 6.002575683593750000e+02 6.316899414062500000e+02 6.837533569335937500e+02 6.627717895507812500e+02 6.108363037109375000e+02 6.768442382812500000e+02 6.712599487304687500e+02 6.879279174804687500e+02 5.949301757812500000e+02 5.450172119140625000e+02 5.255669555664062500e+02 5.602302246093750000e+02 5.482443847656250000e+02 5.084822387695312500e+02 5.285286254882812500e+02 5.832816772460937500e+02 6.552995605468750000e+02 7.447433471679687500e+02 6.608609619140625000e+02 6.381749267578125000e+02 6.123631591796875000e+02 5.240589599609375000e+02 5.377344360351562500e+02 5.969940185546875000e+02 5.622895507812500000e+02 5.983256835937500000e+02 6.579779052734375000e+02 7.365718994140625000e+02 6.661769409179687500e+02 5.844915161132812500e+02 5.637777099609375000e+02 5.313922729492187500e+02 4.964958190917968750e+02 4.659499511718750000e+02 4.444398803710937500e+02 4.088872680664062500e+02 4.315650024414062500e+02 4.553529052734375000e+02 4.894000854492187500e+02 5.153882446289062500e+02 5.121267089843750000e+02 4.600123901367187500e+02 4.563417053222656250e+02 4.516873168945312500e+02 5.074342041015625000e+02 4.579693298339843750e+02
9.505631103515625000e+02 8.945050048828125000e+02 8.087583007812500000e+02 7.188256225585937500e+02 6.487377929687500000e+02 6.158626708984375000e+02 5.800852661132812500e+02 5.659042968750000000e+02 5.230972290039062500e+02 5.017633056640625000e+02 5.232423095703125000e+02 5.394320068359375000e+02 5.885579833984375000e+02 6.197706298828125000e+02 6.826017456054687500e+02 6.551002807617187500e+02 6.279992675781250000e+02 5.384979248046875000e+02 4.254567871093750000e+02 4.128762817382812500e+02 4.576701354980468750e+02 3.710392761230468750e+02 4.473245239257812500e+02 4.624967041015625000e+02 5.713383789062500000e+02 6.331130981445312500e+02 7.056480102539062500e+02 7.563023071289062500e+02 8.121558837890625000e+02 7.689542236328125000e+02 7.251826782226562500e+02 7.213160400390625000e+02 7.579349365234375000e+02 7.349915771484375000e+02 6.207548217773437500e+02 5.726643676757812500e+02 5.307529907226562500e+02 5.095630493164062500e+02 5.494440917968750000e+02 4.903251037597656250e+02 6.226934204101562500e+02 6.423182983398437500e+02 6.752055664062500000e+02 6.826719970703125000e+02 6.507233276367187500e+02 5.612455444335937500e+02 5.109105224609375000e+02 5.137260131835937500e+02 5.161080932617187500e+02 6.176693115234375000e+02 6.810255126953125000e+02 6.832480468750000000e+02 7.658709106445312500e+02 7.169577636718750000e+02 6.321164550781250000e+02 5.655738525390625000e+02 5.365753173828125000e+02 5.009647827148437500e+02 4.728243103027343750e+02 4.848623962402343750e+02 4.524833374023437500e+02 4.098975219726562500e+02 4.560411376953125000e+02 4.664459838867187500e+02 4.636206970214843750e+02 4.857362060546875000e+02 5.002021789550781250e+02 4.785070190429687500e+02 4.117004394531250000e+02 4.065007324218750000e+02 4.224914855957031250e+02 4.414721374511718750e+02
9.660582275390625000e+02 8.882296142578125000e+02 7.686425170898437500e+02 7.225516967773437500e+02 7.688668212890625000e+02 6.898209228515625000e+02 6.476700439453125000e+02 6.036492309570312500e+02 5.704478759765625000e+02 5.435426025390625000e+02 5.495892944335937500e+02 5.919525756835937500e+02 6.936663818359375000e+02 7.471575927734375000e+02 8.045518188476562500e+02 7.675036010742187500e+02 6.694056396484375000e+02 5.730319213867187500e+02 4.842425231933593750e+02 3.796785278320312500e+02 3.774056396484375000e+02 4.097773742675781250e+02 5.263991699218750000e+02 5.909918212890625000e+02 6.034887695312500000e+02 6.115913085937500000e+02 6.515977172851562500e+02 7.118372802734375000e+02 7.722127685546875000e+02 8.298694458007812500e+02 8.134899902343750000e+02 7.969129028320312500e+02 7.750891723632812500e+02 7.376203613281250000e+02 6.524425048828125000e+02 6.061075439453125000e+02 5.814614257812500000e+02 5.393806152343750000e+02 4.920881347656250000e+02 4.989444885253906250e+02 5.816977539062500000e+02 5.831300048828125000e+02 6.014683837890625000e+02 6.647307739257812500e+02 7.115546264648437500e+02 6.187121582031250000e+02 5.049991760253906250e+02 4.998612976074218750e+02 5.893242797851562500e+02 6.315509643554687500e+02 7.179554443359375000e+02 7.484880371093750000e+02 8.013164672851562500e+02 7.238016357421875000e+02 7.150949707031250000e+02 6.640606689453125000e+02 5.654462280273437500e+02 5.726557617187500000e+02 5.282654418945312500e+02 5.213826293945312500e+02 4.479755249023437500e+02 4.138865356445312500e+02 4.293132934570312500e+02 4.793769836425781250e+02 4.580552368164062500e+02 4.976704406738281250e+02 4.661898803710937500e+02 4.574302673339843750e+02 4.362122192382812500e+02 3.891047058105468750e+02 3.784550476074218750e+02 3.960443725585937500e+02
9.932839355468750000e+02 8.938281860351562500e+02 7.926202392578125000e+02 7.533273315429687500e+02 7.474988403320312500e+02 7.074179687500000000e+02 6.402525634765625000e+02 6.072263183593750000e+02 5.575310668945312500e+02 5.078394470214843750e+02 5.486243896484375000e+02 6.100101928710937500e+02 7.075020141601562500e+02 7.764417114257812500e+02 8.132399291992187500e+02 7.240614013671875000e+02 6.339627685546875000e+02 5.516044311523437500e+02 5.094098510742187500e+02 4.133889770507812500e+02 3.570102233886718750e+02 4.276276550292968750e+02 5.046755981445312500e+02 5.809066162109375000e+02 6.740626220703125000e+02 6.560946655273437500e+02 6.963538818359375000e+02 7.319947509765625000e+02 7.859346923828125000e+02 8.683269042968750000e+02 8.629605712890625000e+02 8.271077880859375000e+02 7.816293945312500000e+02 7.270169067382812500e+02 6.611120605468750000e+02 6.109450683593750000e+02 5.822259521484375000e+02 5.319501342773437500e+02 5.143547363281250000e+02 4.894385681152343750e+02 5.592298583984375000e+02 5.271436767578125000e+02 5.810468139648437500e+02 6.487120361328125000e+02 6.767795410156250000e+02 6.136279907226562500e+02 5.172320556640625000e+02 4.888026733398437500e+02 5.767041015625000000e+02 6.147170410156250000e+02 6.637774658203125000e+02 7.384556884765625000e+02 8.241145019531250000e+02 7.732427978515625000e+02 7.801605834960937500e+02 6.974067382812500000e+02 6.318508300781250000e+02 5.978430786132812500e+02 5.609633178710937500e+02 5.262383422851562500e+02 4.729430847167968750e+02 4.270762939453125000e+02 4.280277709960937500e+02 4.640812683105468750e+02 4.471945800781250000e+02 4.703222961425781250e+02 4.702756652832031250e+02 4.299996948242187500e+02 4.357897033691406250e+02 3.789387817382812500e+02 3.552813415527343750e+02 3.672052917480468750e+02
1.011233825683593750e+03 9.585617065429687500e+02 8.537088623046875000e+02 7.440089721679687500e+02 6.680200195312500000e+02 6.420946044921875000e+02 5.965797729492187500e+02 5.665960083007812500e+02 5.127937622070312500e+02 5.106982421875000000e+02 5.517501220703125000e+02 5.888643798828125000e+02 6.720405883789062500e+02 7.693288574218750000e+02 7.734649658203125000e+02 6.590487060546875000e+02 5.114175109863281250e+02 4.655575561523437500e+02 4.126410827636718750e+02 3.702275390625000000e+02 3.848815307617187500e+02 4.914955444335937500e+02 5.543789672851562500e+02 5.614040527343750000e+02 6.491716918945312500e+02 7.401034545898437500e+02 8.059793701171875000e+02 8.274127807617187500e+02 8.813435668945312500e+02 9.380901489257812500e+02 9.188629150390625000e+02 9.267935791015625000e+02 8.064658813476562500e+02 7.836171264648437500e+02 6.921213378906250000e+02 5.878070678710937500e+02 5.480889282226562500e+02 5.416560058593750000e+02 4.972000732421875000e+02 4.644029235839843750e+02 4.908695373535156250e+02 5.186936035156250000e+02 5.450276489257812500e+02 6.004711303710937500e+02 6.868216552734375000e+02 6.476430053710937500e+02 5.646126098632812500e+02 4.618900451660156250e+02 5.209039306640625000e+02 5.996125488281250000e+02 6.479815673828125000e+02 7.326979980468750000e+02 7.454851074218750000e+02 8.049459838867187500e+02 8.196680297851562500e+02 7.867201538085937500e+02 7.111101074218750000e+02 6.514379272460937500e+02 6.594819335937500000e+02 5.628121337890625000e+02 4.799803466796875000e+02 4.097579345703125000e+02 4.146185607910156250e+02 4.460642089843750000e+02 4.426545104980468750e+02 4.806509399414062500e+02 4.384812927246093750e+02 4.201900329589843750e+02 3.682712097167968750e+02 3.244470825195312500e+02 3.712321777343750000e+02 3.422995300292968750e+02
9.817413940429687500e+02 9.007805786132812500e+02 8.055366821289062500e+02 7.336938476562500000e+02 6.727363281250000000e+02 6.228919677734375000e+02 5.779368286132812500e+02 5.364304199218750000e+02 4.996491088867187500e+02 4.749463806152343750e+02 5.007621765136718750e+02 5.635465698242187500e+02 6.369001464843750000e+02 7.230479125976562500e+02 6.885972900390625000e+02 6.153225097656250000e+02 5.328962402343750000e+02 3.996305541992187500e+02 3.699696350097656250e+02 4.691661987304687500e+02 5.101034851074218750e+02 5.636197509765625000e+02 6.310305175781250000e+02 6.452770385742187500e+02 7.268317260742187500e+02 7.980216064453125000e+02 8.941134643554687500e+02 9.148081665039062500e+02 8.991239013671875000e+02 8.486202392578125000e+02 8.189791259765625000e+02 7.769217529296875000e+02 7.421616210937500000e+02 7.575570068359375000e+02 7.096742553710937500e+02 6.339049072265625000e+02 5.812714843750000000e+02 5.808908081054687500e+02 5.848833007812500000e+02 5.623246459960937500e+02 4.663055419921875000e+02 4.734651184082031250e+02 5.116197814941406250e+02 5.576251220703125000e+02 6.423671875000000000e+02 6.139176025390625000e+02 5.307802734375000000e+02 4.979197692871093750e+02 5.285712280273437500e+02 5.976119995117187500e+02 5.590096435546875000e+02 6.231503295898437500e+02 6.904545898437500000e+02 7.110202026367187500e+02 7.839990844726562500e+02 7.882204589843750000e+02 7.571803588867187500e+02 7.083083496093750000e+02 6.877480468750000000e+02 6.360210571289062500e+02 5.451561889648437500e+02 4.596707153320312500e+02 4.125079650878906250e+02 3.988186950683593750e+02 4.651477050781250000e+02 5.042283630371093750e+02 4.485841064453125000e+02 4.027511596679687500e+02 3.343521118164062500e+02 3.259067382812500000e+02 3.602275390625000000e+02 4.031877441406250000e+02
9.968900146484375000e+02 9.590983886718750000e+02 8.774944458007812500e+02 7.896687011718750000e+02 7.080180053710937500e+02 6.665113525390625000e+02 5.946271972656250000e+02 5.292927246093750000e+02 4.952922668457031250e+02 4.685837402343750000e+02 5.194730834960937500e+02 5.627921142578125000e+02 6.438489990234375000e+02 7.068900146484375000e+02 6.677755737304687500e+02 5.965372314453125000e+02 5.037848510742187500e+02 3.673576660156250000e+02 3.985863952636718750e+02 5.039986572265625000e+02 5.460463867187500000e+02 6.069445800781250000e+02 6.862126464843750000e+02 7.091665039062500000e+02 7.542053833007812500e+02 8.198155517578125000e+02 8.681746826171875000e+02 9.005430908203125000e+02 9.144858398437500000e+02 8.184450683593750000e+02 7.914616699218750000e+02 7.378319702148437500e+02 6.994146118164062500e+02 6.863707885742187500e+02 6.966963500976562500e+02 6.668178100585937500e+02 5.736364746093750000e+02 5.851248168945312500e+02 5.403696289062500000e+02 5.555676879882812500e+02 4.691070251464843750e+02 5.288059692382812500e+02 5.119603881835937500e+02 5.316318969726562500e+02 6.380913085937500000e+02 6.323833007812500000e+02 5.190411376953125000e+02 4.657014770507812500e+02 5.491853027343750000e+02 5.621116943359375000e+02 5.296124877929687500e+02 6.298033447265625000e+02 6.354504394531250000e+02 7.171394653320312500e+02 7.938481445312500000e+02 7.722720947265625000e+02 7.108732299804687500e+02 6.684175415039062500e+02 6.394310302734375000e+02 6.297420654296875000e+02 5.567346191406250000e+02 5.038154602050781250e+02 4.367702026367187500e+02 4.161730346679687500e+02 4.744583740234375000e+02 5.047303466796875000e+02 4.448288879394531250e+02 4.028626708984375000e+02 3.393340148925781250e+02 3.242542724609375000e+02 3.657322998046875000e+02 3.994821166992187500e+02
8.807639160156250000e+02 8.962678222656250000e+02 8.786693115234375000e+02 7.884928588867187500e+02 6.767751464843750000e+02 6.141784057617187500e+02 5.961882324218750000e+02 5.384383544921875000e+02 5.237731323242187500e+02 4.539222717285156250e+02 4.838050842285156250e+02 5.422625122070312500e+02 5.994829101562500000e+02 6.410404663085937500e+02 6.228337402343750000e+02 6.224435424804687500e+02 4.776915893554687500e+02 3.610751647949218750e+02 4.238416748046875000e+02 4.719266052246093750e+02 5.698446655273437500e+02 5.938914794921875000e+02 6.795194091796875000e+02 7.749376220703125000e+02 8.225744628906250000e+02 8.516851806640625000e+02 8.781231689453125000e+02 9.469914550781250000e+02 9.442723999023437500e+02 8.282003784179687500e+02 7.452349243164062500e+02 6.837465820312500000e+02 6.305069580078125000e+02 6.030499877929687500e+02 6.012794799804687500e+02 6.276099243164062500e+02 5.443049316406250000e+02 5.404358520507812500e+02 5.590725708007812500e+02 5.044928894042968750e+02 4.487051391601562500e+02 5.085415954589843750e+02 5.836472167968750000e+02 6.245532226562500000e+02 6.720885009765625000e+02 6.361888427734375000e+02 5.919978637695312500e+02 4.930112915039062500e+02 4.530379638671875000e+02 4.670860290527343750e+02 4.676960449218750000e+02 5.530562133789062500e+02 6.333347778320312500e+02 6.658715820312500000e+02 7.212133789062500000e+02 7.850808715820312500e+02 7.556138305664062500e+02 6.849167480468750000e+02 6.061562500000000000e+02 5.900957031250000000e+02 6.193306884765625000e+02 5.450583496093750000e+02 4.455942382812500000e+02 4.137564086914062500e+02 4.861985473632812500e+02 4.984269714355468750e+02 4.808691406250000000e+02 4.253120727539062500e+02 3.473434448242187500e+02 3.786132507324218750e+02 4.161746520996093750e+02 4.530289001464843750e+02
8.524157104492187500e+02 8.201431884765625000e+02 8.042947998046875000e+02 7.788125000000000000e+02 6.691879272460937500e+02 6.024590454101562500e+02 5.591778564453125000e+02 5.448649902343750000e+02 5.348801879882812500e+02 4.627338867187500000e+02 4.625494689941406250e+02 5.066118164062500000e+02 5.944941406250000000e+02 5.816262207031250000e+02 5.601205444335937500e+02 5.862260131835937500e+02 4.533825988769531250e+02 3.628922729492187500e+02 4.534913024902343750e+02 5.225987548828125000e+02 5.983450317382812500e+02 6.572003173828125000e+02 6.825321044921875000e+02 7.588189697265625000e+02 8.475770874023437500e+02 8.677296142578125000e+02 8.535908813476562500e+02 9.273171997070312500e+02 9.451374511718750000e+02 9.013994750976562500e+02 7.665145874023437500e+02 6.922329711914062500e+02 6.317890625000000000e+02 6.062178955078125000e+02 5.833175659179687500e+02 5.939544677734375000e+02 5.281964111328125000e+02 5.208505859375000000e+02 5.157599487304687500e+02 4.938985595703125000e+02 4.556949462890625000e+02 4.996158447265625000e+02 5.352203369140625000e+02 5.929918823242187500e+02 6.603099365234375000e+02 6.262279052734375000e+02 5.867595214843750000e+02 5.131271362304687500e+02 5.087727050781250000e+02 4.544640502929687500e+02 4.719172973632812500e+02 5.516960449218750000e+02 5.960220947265625000e+02 6.664335327148437500e+02 7.153626098632812500e+02 7.672647094726562500e+02 6.977745361328125000e+02 6.377936401367187500e+02 5.905880126953125000e+02 5.717474975585937500e+02 6.083146972656250000e+02 5.564993896484375000e+02 4.824459838867187500e+02 4.231135864257812500e+02 4.431016845703125000e+02 4.549592590332031250e+02 4.683439941406250000e+02 3.830985717773437500e+02 3.237934875488281250e+02 4.301613769531250000e+02 4.716099853515625000e+02 4.913822937011718750e+02
8.099774780273437500e+02 7.413776245117187500e+02 6.964183959960937500e+02 6.667713623046875000e+02 6.299063110351562500e+02 5.690651855468750000e+02 5.315031738281250000e+02 5.410622558593750000e+02 5.109568786621093750e+02 4.550532226562500000e+02 4.502108459472656250e+02 5.129883422851562500e+02 5.833693847656250000e+02 5.084137878417968750e+02 4.979325561523437500e+02 5.338128051757812500e+02 4.241068420410156250e+02 3.669217529296875000e+02 4.451505432128906250e+02 5.057621459960937500e+02 5.474556274414062500e+02 6.302542724609375000e+02 7.023927612304687500e+02 7.257130126953125000e+02 8.505568847656250000e+02 7.990654296875000000e+02 7.941730346679687500e+02 8.111982421875000000e+02 8.579296875000000000e+02 9.424672241210937500e+02 8.526329956054687500e+02 7.428236083984375000e+02 6.787032470703125000e+02 6.302582397460937500e+02 5.842449951171875000e+02 5.792056884765625000e+02 5.654264526367187500e+02 5.377050781250000000e+02 5.167741088867187500e+02 5.454925537109375000e+02 4.833999633789062500e+02 4.373045654296875000e+02 4.920335693359375000e+02 5.426168212890625000e+02 6.257573852539062500e+02 6.847451171875000000e+02 6.242994384765625000e+02 6.371051025390625000e+02 5.376901855468750000e+02 4.644208984375000000e+02 4.580285949707031250e+02 5.066270141601562500e+02 5.661691284179687500e+02 6.450614013671875000e+02 7.140606689453125000e+02 7.580286865234375000e+02 7.200873413085937500e+02 6.972729492187500000e+02 6.412647094726562500e+02 5.620695800781250000e+02 5.640340576171875000e+02 5.861812133789062500e+02 5.562579345703125000e+02 4.705483703613281250e+02 4.120612792968750000e+02 3.747485656738281250e+02 3.447731323242187500e+02 3.249538269042968750e+02 4.227763366699218750e+02 5.118233337402343750e+02 5.198555297851562500e+02 5.482576904296875000e+02
7.262825927734375000e+02 7.088920898437500000e+02 7.117620849609375000e+02 6.569526977539062500e+02 5.843922729492187500e+02 5.226831054687500000e+02 5.126809082031250000e+02 4.926392211914062500e+02 4.945586242675781250e+02 4.306194763183593750e+02 4.343508911132812500e+02 4.910005493164062500e+02 5.165789794921875000e+02 4.602024841308593750e+02 4.283412475585937500e+02 4.824465332031250000e+02 4.276445922851562500e+02 3.591452026367187500e+02 4.137082824707031250e+02 4.717814025878906250e+02 5.322770996093750000e+02 5.850808715820312500e+02 6.089475708007812500e+02 6.968106079101562500e+02 7.902324218750000000e+02 7.423388671875000000e+02 7.777276611328125000e+02 8.229495849609375000e+02 8.853898315429687500e+02 8.724975585937500000e+02 8.301512451171875000e+02 7.709355468750000000e+02 6.911245117187500000e+02 6.703997192382812500e+02 6.693378295898437500e+02 6.430046386718750000e+02 6.372514038085937500e+02 5.606958618164062500e+02 5.004091491699218750e+02 5.097944335937500000e+02 4.746156005859375000e+02 4.292122192382812500e+02 5.178339843750000000e+02 6.241501464843750000e+02 6.749173583984375000e+02 7.163494873046875000e+02 6.546179199218750000e+02 5.873710327148437500e+02 5.345837402343750000e+02 4.769354248046875000e+02 4.467531738281250000e+02 5.036485290527343750e+02 5.655979003906250000e+02 6.384884033203125000e+02 7.204422607421875000e+02 7.985043945312500000e+02 7.245611572265625000e+02 6.736090087890625000e+02 6.314250488281250000e+02 6.003801269531250000e+02 5.503118286132812500e+02 5.259676513671875000e+02 5.404660644531250000e+02 5.563081054687500000e+02 5.046322326660156250e+02 4.528144836425781250e+02 3.863551635742187500e+02 3.318204956054687500e+02 4.504525451660156250e+02 5.403776855468750000e+02 5.595279541015625000e+02 5.975451660156250000e+02
6.919739990234375000e+02 6.636347656250000000e+02 6.827384643554687500e+02 6.566161499023437500e+02 5.971840820312500000e+02 5.265910644531250000e+02 4.916233520507812500e+02 4.702153320312500000e+02 4.732848205566406250e+02 4.098255920410156250e+02 4.484083251953125000e+02 4.829264221191406250e+02 4.918947753906250000e+02 4.438065185546875000e+02 4.002164916992187500e+02 4.440990905761718750e+02 4.155395507812500000e+02 3.579705200195312500e+02 4.121072692871093750e+02 4.516607360839843750e+02 4.895029907226562500e+02 5.389417114257812500e+02 6.028556518554687500e+02 6.924004516601562500e+02 7.273612060546875000e+02 7.107012939453125000e+02 7.753076171875000000e+02 8.437802734375000000e+02 8.207448730468750000e+02 8.393961181640625000e+02 7.792264404296875000e+02 7.298851928710937500e+02 6.521832275390625000e+02 6.370509033203125000e+02 6.356859130859375000e+02 6.306348876953125000e+02 6.291077270507812500e+02 5.425183715820312500e+02 4.977717895507812500e+02 4.711887512207031250e+02 4.419273681640625000e+02 4.381141662597656250e+02 5.523629150390625000e+02 5.952147216796875000e+02 6.246785888671875000e+02 6.927095947265625000e+02 6.652364501953125000e+02 5.688431396484375000e+02 5.195126953125000000e+02 4.798856201171875000e+02 4.185067138671875000e+02 4.779259033203125000e+02 5.723009033203125000e+02 6.543232421875000000e+02 6.931981811523437500e+02 7.499538574218750000e+02 7.776027221679687500e+02 7.406127929687500000e+02 6.781473388671875000e+02 6.031911010742187500e+02 5.579611206054687500e+02 5.383712158203125000e+02 5.205773925781250000e+02 5.319846801757812500e+02 4.584327087402343750e+02 4.083256835937500000e+02 3.580296020507812500e+02 3.430153808593750000e+02 4.702110595703125000e+02 5.486500854492187500e+02 5.747956542968750000e+02 6.157707519531250000e+02
6.045651245117187500e+02 6.017258300781250000e+02 6.268179931640625000e+02 5.917863769531250000e+02 5.737907714843750000e+02 5.255052490234375000e+02 4.753307495117187500e+02 4.417269897460937500e+02 4.081855163574218750e+02 4.083323974609375000e+02 4.135219726562500000e+02 4.581899719238281250e+02 4.435386962890625000e+02 4.290235595703125000e+02 3.760320434570312500e+02 3.471531677246093750e+02 3.560976867675781250e+02 3.664662475585937500e+02 4.129309387207031250e+02 4.815040588378906250e+02 5.548994750976562500e+02 5.959984741210937500e+02 6.072224121093750000e+02 6.046937255859375000e+02 6.325380859375000000e+02 7.082180786132812500e+02 7.632644042968750000e+02 8.176069946289062500e+02 7.670284423828125000e+02 7.731060791015625000e+02 6.930755615234375000e+02 6.492425537109375000e+02 6.300974731445312500e+02 5.701951904296875000e+02 5.436107177734375000e+02 5.271284179687500000e+02 5.542679443359375000e+02 5.138103027343750000e+02 5.057235107421875000e+02 4.928016662597656250e+02 4.090969543457031250e+02 4.370743408203125000e+02 4.775294799804687500e+02 5.535725097656250000e+02 6.247678222656250000e+02 6.890465087890625000e+02 6.616405029296875000e+02 5.830324707031250000e+02 4.983040466308593750e+02 4.422406616210937500e+02 4.062624206542968750e+02 4.762991638183593750e+02 5.617655639648437500e+02 6.449977416992187500e+02 6.144948730468750000e+02 6.416080322265625000e+02 7.505115966796875000e+02 7.542501831054687500e+02 7.330622558593750000e+02 6.661582031250000000e+02 6.436967163085937500e+02 5.928736572265625000e+02 5.397941284179687500e+02 5.032525024414062500e+02 4.718179016113281250e+02 4.830408020019531250e+02 3.864255371093750000e+02 3.708914184570312500e+02 4.707262878417968750e+02 5.369338378906250000e+02 5.709858398437500000e+02 6.039422607421875000e+02
5.936781005859375000e+02 5.790253906250000000e+02 5.945074462890625000e+02 5.725228881835937500e+02 5.485341796875000000e+02 5.291374511718750000e+02 4.978239746093750000e+02 4.538884582519531250e+02 3.888684997558593750e+02 4.211588134765625000e+02 4.143767700195312500e+02 4.623922119140625000e+02 4.305747680664062500e+02 4.064862976074218750e+02 3.938441467285156250e+02 3.309699401855468750e+02 3.407059020996093750e+02 3.804376220703125000e+02 4.386690979003906250e+02 4.885817871093750000e+02 5.353365478515625000e+02 5.947764282226562500e+02 5.610440063476562500e+02 5.768015747070312500e+02 6.344976196289062500e+02 7.097934570312500000e+02 7.571790771484375000e+02 8.017884521484375000e+02 7.610203247070312500e+02 7.273822631835937500e+02 6.788453369140625000e+02 5.979719238281250000e+02 6.407614135742187500e+02 5.793793945312500000e+02 5.391786499023437500e+02 5.105522766113281250e+02 5.155493164062500000e+02 4.644826660156250000e+02 4.638571166992187500e+02 4.676862182617187500e+02 4.370561218261718750e+02 3.973650512695312500e+02 4.469968872070312500e+02 5.465497436523437500e+02 6.153680419921875000e+02 6.636905517578125000e+02 6.910769042968750000e+02 5.919333496093750000e+02 5.112343444824218750e+02 4.356668090820312500e+02 4.090676574707031250e+02 4.835867614746093750e+02 5.154470825195312500e+02 5.926107788085937500e+02 5.763485717773437500e+02 6.135692138671875000e+02 7.073121337890625000e+02 6.970952758789062500e+02 7.611464843750000000e+02 7.369253540039062500e+02 6.567376708984375000e+02 5.881057128906250000e+02 5.661745605468750000e+02 5.278842163085937500e+02 5.085992736816406250e+02 4.792456359863281250e+02 3.919965209960937500e+02 3.555316162109375000e+02 4.648240966796875000e+02 5.289558715820312500e+02 5.518504638671875000e+02 5.936148681640625000e+02
5.591765747070312500e+02 5.406707763671875000e+02 5.306107177734375000e+02 5.270120849609375000e+02 4.947320861816406250e+02 4.807284545898437500e+02 4.668901367187500000e+02 4.514990234375000000e+02 3.746141662597656250e+02 4.324332275390625000e+02 3.984352111816406250e+02 4.364843750000000000e+02 3.688154296875000000e+02 3.567410278320312500e+02 3.637376403808593750e+02 3.235000000000000000e+02 4.743066406250000000e+02 4.317047119140625000e+02 4.150913696289062500e+02 4.146894836425781250e+02 4.564360046386718750e+02 5.057957458496093750e+02 5.141602172851562500e+02 5.603044433593750000e+02 6.608800048828125000e+02 7.401640625000000000e+02 7.793608398437500000e+02 8.034221191406250000e+02 7.220377197265625000e+02 6.734377441406250000e+02 5.847011108398437500e+02 5.349094238281250000e+02 5.569935302734375000e+02 6.092833251953125000e+02 5.315208740234375000e+02 5.158568725585937500e+02 5.107106323242187500e+02 4.777131958007812500e+02 4.415565185546875000e+02 4.405692749023437500e+02 4.291795349121093750e+02 4.203056945800781250e+02 4.358670654296875000e+02 5.190133056640625000e+02 5.627596435546875000e+02 6.364210205078125000e+02 6.845935668945312500e+02 5.888601074218750000e+02 4.757799072265625000e+02 4.074633178710937500e+02 4.677374267578125000e+02 4.535490722656250000e+02 5.153411254882812500e+02 5.603279418945312500e+02 4.839951171875000000e+02 5.773576660156250000e+02 6.399557495117187500e+02 6.897066650390625000e+02 6.748989257812500000e+02 7.052482910156250000e+02 6.984274291992187500e+02 6.671272583007812500e+02 6.283344116210937500e+02 5.483665771484375000e+02 4.372088928222656250e+02 4.348393249511718750e+02 3.512349853515625000e+02 3.774247436523437500e+02 4.479786987304687500e+02 5.208895263671875000e+02 5.463707275390625000e+02 5.918681640625000000e+02
6.047206420898437500e+02 5.711582031250000000e+02 5.141563720703125000e+02 4.484620971679687500e+02 4.376091308593750000e+02 4.151336975097656250e+02 3.932451477050781250e+02 4.232291259765625000e+02 3.634255676269531250e+02 3.335350646972656250e+02 4.078753356933593750e+02 3.768090209960937500e+02 3.364500732421875000e+02 3.227835388183593750e+02 3.559135131835937500e+02 4.029944152832031250e+02 4.924633178710937500e+02 5.355226440429687500e+02 5.080547485351562500e+02 5.350457763671875000e+02 4.748119506835937500e+02 4.575962829589843750e+02 5.033326721191406250e+02 5.717979736328125000e+02 7.003786010742187500e+02 7.637224731445312500e+02 7.726768188476562500e+02 8.295225219726562500e+02 7.219649658203125000e+02 5.942475585937500000e+02 5.077759399414062500e+02 5.098502197265625000e+02 5.141004028320312500e+02 5.641662597656250000e+02 5.779252929687500000e+02 5.666411132812500000e+02 5.303778076171875000e+02 4.782679443359375000e+02 5.053605957031250000e+02 5.219780273437500000e+02 4.986988525390625000e+02 4.727352294921875000e+02 3.919603881835937500e+02 4.533297729492187500e+02 5.091864929199218750e+02 5.728079833984375000e+02 6.464213867187500000e+02 6.016858520507812500e+02 4.596902770996093750e+02 3.851406860351562500e+02 4.894273681640625000e+02 5.535665283203125000e+02 5.211462402343750000e+02 4.846077880859375000e+02 4.295778503417968750e+02 5.202399902343750000e+02 5.370037231445312500e+02 6.060621337890625000e+02 5.959542846679687500e+02 6.171190185546875000e+02 5.791901855468750000e+02 5.756441040039062500e+02 6.209677734375000000e+02 5.371138916015625000e+02 4.181090393066406250e+02 3.702839355468750000e+02 3.468723754882812500e+02 4.294918212890625000e+02 4.792140502929687500e+02 5.124756469726562500e+02 5.429382324218750000e+02 5.748548583984375000e+02
6.605792846679687500e+02 6.164102172851562500e+02 5.509530029296875000e+02 4.847436523437500000e+02 4.401545104980468750e+02 4.220780334472656250e+02 4.045572204589843750e+02 3.819592285156250000e+02 3.984251708984375000e+02 3.489221801757812500e+02 3.992861633300781250e+02 3.654343872070312500e+02 3.844548339843750000e+02 3.440762939453125000e+02 3.223843994140625000e+02 3.938805541992187500e+02 4.872369079589843750e+02 5.730808715820312500e+02 5.312373657226562500e+02 5.754971313476562500e+02 5.276496582031250000e+02 5.211763916015625000e+02 5.078228759765625000e+02 5.325074462890625000e+02 6.574788818359375000e+02 7.272570190429687500e+02 7.812850341796875000e+02 8.596944580078125000e+02 7.324501953125000000e+02 5.997455444335937500e+02 5.267030029296875000e+02 5.001710205078125000e+02 4.955874938964843750e+02 5.096394653320312500e+02 5.435873413085937500e+02 5.719152221679687500e+02 5.183447265625000000e+02 4.905787353515625000e+02 5.168047485351562500e+02 5.167850952148437500e+02 4.870867309570312500e+02 4.634397583007812500e+02 3.900366210937500000e+02 4.294607849121093750e+02 4.911683044433593750e+02 5.711072998046875000e+02 6.084957275390625000e+02 6.124494628906250000e+02 4.876691284179687500e+02 3.880970153808593750e+02 4.860870361328125000e+02 5.435999145507812500e+02 5.202738037109375000e+02 4.359572753906250000e+02 4.117552185058593750e+02 4.937368164062500000e+02 4.898389892578125000e+02 5.931380615234375000e+02 5.655649414062500000e+02 5.536604614257812500e+02 5.131033935546875000e+02 5.544381103515625000e+02 6.463347167968750000e+02 5.610021972656250000e+02 4.159064636230468750e+02 3.418338012695312500e+02 3.828569335937500000e+02 4.804027709960937500e+02 4.966454467773437500e+02 5.073322143554687500e+02 5.405039672851562500e+02 5.735601806640625000e+02
6.639577636718750000e+02 6.072046508789062500e+02 5.832589111328125000e+02 5.054697265625000000e+02 4.682484436035156250e+02 4.726548156738281250e+02 4.626964416503906250e+02 4.503126220703125000e+02 4.315747375488281250e+02 4.088780212402343750e+02 3.263261413574218750e+02 3.591422729492187500e+02 3.781967468261718750e+02 3.615834045410156250e+02 3.217401123046875000e+02 3.602403564453125000e+02 5.087809143066406250e+02 6.126791381835937500e+02 6.072268066406250000e+02 6.137649536132812500e+02 6.402351684570312500e+02 6.188228149414062500e+02 6.008313598632812500e+02 5.704931030273437500e+02 6.428046875000000000e+02 7.004498901367187500e+02 7.876218872070312500e+02 8.945847778320312500e+02 7.661119384765625000e+02 6.387175292968750000e+02 5.544481201171875000e+02 4.582204589843750000e+02 4.248830871582031250e+02 4.631940917968750000e+02 5.180129394531250000e+02 5.608876953125000000e+02 5.796380615234375000e+02 5.587304687500000000e+02 5.853424682617187500e+02 5.353098754882812500e+02 4.743210144042968750e+02 4.422163696289062500e+02 4.089822998046875000e+02 3.803406982421875000e+02 4.300473022460937500e+02 5.139972534179687500e+02 5.539920654296875000e+02 6.398388671875000000e+02 4.928475952148437500e+02 4.023214111328125000e+02 4.372144165039062500e+02 5.206688232421875000e+02 4.728571166992187500e+02 4.372774658203125000e+02 3.917564697265625000e+02 4.381585388183593750e+02 4.551404113769531250e+02 5.048661193847656250e+02 4.600189208984375000e+02 4.532132568359375000e+02 4.716680297851562500e+02 5.600502929687500000e+02 6.087100830078125000e+02 5.479929809570312500e+02 3.937571105957031250e+02 3.194436645507812500e+02 4.048894042968750000e+02 4.539069213867187500e+02 5.071503906250000000e+02 5.370026245117187500e+02 5.477487792968750000e+02 5.477163696289062500e+02
6.668267822265625000e+02 6.290544433593750000e+02 5.856575927734375000e+02 5.356744995117187500e+02 4.957421569824218750e+02 4.666763610839843750e+02 4.206673583984375000e+02 4.303056335449218750e+02 4.144909667968750000e+02 4.077012023925781250e+02 3.498263549804687500e+02 3.256431579589843750e+02 3.312142333984375000e+02 3.215143127441406250e+02 3.205000000000000000e+02 3.791313476562500000e+02 4.923657836914062500e+02 6.046693725585937500e+02 6.341623535156250000e+02 6.106480102539062500e+02 6.681125488281250000e+02 6.874434204101562500e+02 6.664179687500000000e+02 6.155770263671875000e+02 6.798269042968750000e+02 7.462438964843750000e+02 7.982989501953125000e+02 8.624876708984375000e+02 7.761216430664062500e+02 6.655272827148437500e+02 5.663147583007812500e+02 4.693435363769531250e+02 4.189271240234375000e+02 4.357814331054687500e+02 4.985720214843750000e+02 5.494830932617187500e+02 5.365838623046875000e+02 5.299380493164062500e+02 5.676345214843750000e+02 5.534583740234375000e+02 4.759716186523437500e+02 4.827470092773437500e+02 4.412279663085937500e+02 3.578770751953125000e+02 4.520943298339843750e+02 4.798465881347656250e+02 5.344024658203125000e+02 6.278820800781250000e+02 5.167879028320312500e+02 4.015506591796875000e+02 4.312017211914062500e+02 5.139215698242187500e+02 4.327176818847656250e+02 4.121901855468750000e+02 3.699441223144531250e+02 3.738453674316406250e+02 3.915343627929687500e+02 4.524199523925781250e+02 4.245149230957031250e+02 4.180108947753906250e+02 4.783318481445312500e+02 5.202709960937500000e+02 5.809076538085937500e+02 5.217042846679687500e+02 3.890755615234375000e+02 3.208170166015625000e+02 3.879955444335937500e+02 4.498232727050781250e+02 4.960669555664062500e+02 5.230942382812500000e+02 5.137432250976562500e+02 5.187878417968750000e+02
6.142559814453125000e+02 6.185910034179687500e+02 5.729974365234375000e+02 5.037592773437500000e+02 4.746702575683593750e+02 4.254295959472656250e+02 3.735997924804687500e+02 3.737023620605468750e+02 3.896872558593750000e+02 3.764023132324218750e+02 3.804275512695312500e+02 3.247022399902343750e+02 3.191362609863281250e+02 3.705921325683593750e+02 4.247934265136718750e+02 4.393975830078125000e+02 5.300965576171875000e+02 5.642301025390625000e+02 6.370014038085937500e+02 6.743519897460937500e+02 6.982340087890625000e+02 7.752486572265625000e+02 7.891470947265625000e+02 7.424244384765625000e+02 7.294824829101562500e+02 7.320285034179687500e+02 7.661060791015625000e+02 7.439907226562500000e+02 7.341875000000000000e+02 6.953647460937500000e+02 5.870358886718750000e+02 4.847840270996093750e+02 4.191090393066406250e+02 4.027918090820312500e+02 4.693453674316406250e+02 5.066609802246093750e+02 5.166668090820312500e+02 4.764658203125000000e+02 4.771182861328125000e+02 5.051015930175781250e+02 5.308276977539062500e+02 4.388353881835937500e+02 3.747458801269531250e+02 3.168209228515625000e+02 3.961478576660156250e+02 4.662451477050781250e+02 5.389799804687500000e+02 5.351688232421875000e+02 5.306657714843750000e+02 4.240409240722656250e+02 4.056047973632812500e+02 4.187848205566406250e+02 3.168107299804687500e+02 3.197367858886718750e+02 3.270925598144531250e+02 3.585467529296875000e+02 3.161645507812500000e+02 3.208692626953125000e+02 3.375025024414062500e+02 3.832352294921875000e+02 4.072941589355468750e+02 4.801954650878906250e+02 5.537524414062500000e+02 4.749971313476562500e+02 4.281859436035156250e+02 3.155000000000000000e+02 3.873157348632812500e+02 4.428075561523437500e+02 4.376572570800781250e+02 4.796717529296875000e+02 4.462398681640625000e+02 4.661147155761718750e+02
5.320949707031250000e+02 5.284359130859375000e+02 5.357797851562500000e+02 4.834655456542968750e+02 4.314830627441406250e+02 3.887803649902343750e+02 3.615689697265625000e+02 3.589775695800781250e+02 3.361801757812500000e+02 3.477886352539062500e+02 3.184628601074218750e+02 3.224473571777343750e+02 3.192243652343750000e+02 3.507167968750000000e+02 3.913344726562500000e+02 4.081089477539062500e+02 4.627849426269531250e+02 5.338231811523437500e+02 5.711585693359375000e+02 6.381869506835937500e+02 6.883912353515625000e+02 7.275759887695312500e+02 7.710999145507812500e+02 7.675878906250000000e+02 6.920415039062500000e+02 6.616344604492187500e+02 6.562584228515625000e+02 6.240131835937500000e+02 6.522788085937500000e+02 7.132285156250000000e+02 5.963312988281250000e+02 5.155581054687500000e+02 4.690181884765625000e+02 3.973058471679687500e+02 4.015620727539062500e+02 4.579192199707031250e+02 4.111890258789062500e+02 4.592607116699218750e+02 4.378701477050781250e+02 4.852262268066406250e+02 5.125995483398437500e+02 4.405246582031250000e+02 3.280830688476562500e+02 3.813808898925781250e+02 3.995829467773437500e+02 4.398953552246093750e+02 4.926342773437500000e+02 5.009102478027343750e+02 4.521091308593750000e+02 4.321366882324218750e+02 3.457410888671875000e+02 3.218194580078125000e+02 3.226792602539062500e+02 4.016754760742187500e+02 4.468862915039062500e+02 4.757966003417968750e+02 4.383495788574218750e+02 4.142230834960937500e+02 3.364184875488281250e+02 3.173502502441406250e+02 3.935559692382812500e+02 4.572294921875000000e+02 4.697922668457031250e+02 3.951499023437500000e+02 3.191790161132812500e+02 3.424783935546875000e+02 3.700356750488281250e+02 3.543320007324218750e+02 4.119053039550781250e+02 4.083822021484375000e+02 4.554648132324218750e+02 4.442110595703125000e+02
4.784952087402343750e+02 5.093000488281250000e+02 4.999819335937500000e+02 4.770547790527343750e+02 4.585504760742187500e+02 4.054875183105468750e+02 3.589206237792968750e+02 3.521506958007812500e+02 3.369448547363281250e+02 3.218672790527343750e+02 3.175312500000000000e+02 3.180000000000000000e+02 3.180937500000000000e+02 3.274329223632812500e+02 3.569848022460937500e+02 3.849644470214843750e+02 4.522530212402343750e+02 4.754056701660156250e+02 5.326440429687500000e+02 5.980952148437500000e+02 6.816987304687500000e+02 7.062327270507812500e+02 7.397519531250000000e+02 7.354628906250000000e+02 6.858509521484375000e+02 6.151327514648437500e+02 6.099114379882812500e+02 6.027958374023437500e+02 6.553008422851562500e+02 6.712441406250000000e+02 5.655657348632812500e+02 5.005751037597656250e+02 4.640706787109375000e+02 4.074442749023437500e+02 3.865875244140625000e+02 4.466820983886718750e+02 4.018775939941406250e+02 4.423520812988281250e+02 4.464378051757812500e+02 4.910856933593750000e+02 4.973827819824218750e+02 4.287574462890625000e+02 3.457671508789062500e+02 3.586403808593750000e+02 4.147933959960937500e+02 4.592668151855468750e+02 4.928571777343750000e+02 4.629978027343750000e+02 3.975955505371093750e+02 3.578817749023437500e+02 3.178998413085937500e+02 3.468988952636718750e+02 3.963855895996093750e+02 4.191975402832031250e+02 5.024454345703125000e+02 4.748374023437500000e+02 5.074519958496093750e+02 4.818609008789062500e+02 4.006847534179687500e+02 3.155000000000000000e+02 3.433988647460937500e+02 4.174056091308593750e+02 3.927889709472656250e+02 3.247238769531250000e+02 4.015450439453125000e+02 4.313263244628906250e+02 3.488204040527343750e+02 3.850381164550781250e+02 4.382520141601562500e+02 4.779545288085937500e+02 5.073506164550781250e+02 4.774582824707031250e+02
4.309578247070312500e+02 4.587232055664062500e+02 4.847124633789062500e+02 4.282554016113281250e+02 3.834938964843750000e+02 3.717251586914062500e+02 3.559719848632812500e+02 3.897479858398437500e+02 3.703454284667968750e+02 3.337640991210937500e+02 3.172500000000000000e+02 3.554786376953125000e+02 3.715668029785156250e+02 4.011963500976562500e+02 4.656827392578125000e+02 4.027876586914062500e+02 4.169493713378906250e+02 4.340930480957031250e+02 4.813428039550781250e+02 5.569418945312500000e+02 6.501532592773437500e+02 7.021815795898437500e+02 6.946760864257812500e+02 7.216160888671875000e+02 6.812833251953125000e+02 6.141013183593750000e+02 5.863492431640625000e+02 6.218786010742187500e+02 6.479786376953125000e+02 6.086707763671875000e+02 5.402197875976562500e+02 4.816344909667968750e+02 4.466285705566406250e+02 3.996981506347656250e+02 3.676191406250000000e+02 3.467633056640625000e+02 4.123910522460937500e+02 4.067677001953125000e+02 4.131032714843750000e+02 4.774444580078125000e+02 5.529062500000000000e+02 4.655647888183593750e+02 4.063196411132812500e+02 3.169006652832031250e+02 3.761737060546875000e+02 4.536194458007812500e+02 4.050324707031250000e+02 3.764116821289062500e+02 3.161318054199218750e+02 3.708527526855468750e+02 4.365921020507812500e+02 5.118078613281250000e+02 5.318499145507812500e+02 5.316378173828125000e+02 5.396268310546875000e+02 5.342464599609375000e+02 5.558903808593750000e+02 5.532025146484375000e+02 4.633850708007812500e+02 3.907817687988281250e+02 3.155000000000000000e+02 3.245149536132812500e+02 3.163518066406250000e+02 4.074417724609375000e+02 4.698777465820312500e+02 5.305065917968750000e+02 4.951472778320312500e+02 4.918560180664062500e+02 4.856590270996093750e+02 5.424640502929687500e+02 5.646131591796875000e+02 5.526286010742187500e+02
3.864646606445312500e+02 3.937008056640625000e+02 4.370920410156250000e+02 4.741556396484375000e+02 4.621116943359375000e+02 4.523840332031250000e+02 3.785086669921875000e+02 3.686585388183593750e+02 3.320703735351562500e+02 3.165613098144531250e+02 3.247716064453125000e+02 3.675197143554687500e+02 4.059690856933593750e+02 4.119059448242187500e+02 4.489852294921875000e+02 4.852008666992187500e+02 5.530504150390625000e+02 5.415878906250000000e+02 5.937590332031250000e+02 6.124655761718750000e+02 6.500673217773437500e+02 7.148773193359375000e+02 7.001011962890625000e+02 6.816776123046875000e+02 6.932841186523437500e+02 6.274357910156250000e+02 5.756281738281250000e+02 6.091053466796875000e+02 6.328512573242187500e+02 6.287863769531250000e+02 5.571080322265625000e+02 4.898084411621093750e+02 4.267875671386718750e+02 3.978678588867187500e+02 4.562377929687500000e+02 3.718074951171875000e+02 3.443075866699218750e+02 3.583246154785156250e+02 4.105532836914062500e+02 4.494450378417968750e+02 4.315165405273437500e+02 4.174729614257812500e+02 3.706574707031250000e+02 3.293500976562500000e+02 3.157882080078125000e+02 3.308786010742187500e+02 3.158792419433593750e+02 3.549883422851562500e+02 4.427604064941406250e+02 5.134534912109375000e+02 5.756240234375000000e+02 6.234197387695312500e+02 5.852975463867187500e+02 6.351361694335937500e+02 6.497265014648437500e+02 5.992640991210937500e+02 5.737368164062500000e+02 6.373140258789062500e+02 5.564591064453125000e+02 4.888963623046875000e+02 4.127060546875000000e+02 3.513795776367187500e+02 3.970338439941406250e+02 4.581745910644531250e+02 5.022113037109375000e+02 5.528890380859375000e+02 6.060522460937500000e+02 6.017154541015625000e+02 6.279642333984375000e+02 6.475418701171875000e+02 6.037800292968750000e+02 6.071170654296875000e+02
3.795332031250000000e+02 3.798540954589843750e+02 4.109660034179687500e+02 4.859452819824218750e+02 4.893832397460937500e+02 4.503202209472656250e+02 3.907424316406250000e+02 3.486237792968750000e+02 3.179449157714843750e+02 3.166598815917968750e+02 3.417572631835937500e+02 3.840685729980468750e+02 4.087599792480468750e+02 3.809581298828125000e+02 4.108302001953125000e+02 4.771170654296875000e+02 5.228972167968750000e+02 5.872067260742187500e+02 6.478145141601562500e+02 6.899049072265625000e+02 7.304960937500000000e+02 7.512655029296875000e+02 7.139444580078125000e+02 6.712062988281250000e+02 7.042642822265625000e+02 6.252804565429687500e+02 5.760133056640625000e+02 6.233143920898437500e+02 6.588637084960937500e+02 6.466459960937500000e+02 5.627413940429687500e+02 5.060207214355468750e+02 4.189076843261718750e+02 4.282777099609375000e+02 4.746536560058593750e+02 4.235721740722656250e+02 3.157194824218750000e+02 3.166381225585937500e+02 3.805801086425781250e+02 4.438487548828125000e+02 4.057049255371093750e+02 3.563598022460937500e+02 3.156087646484375000e+02 3.145000000000000000e+02 3.147812500000000000e+02 3.152300720214843750e+02 3.575407104492187500e+02 4.373302612304687500e+02 4.688055725097656250e+02 5.290419921875000000e+02 5.501635742187500000e+02 6.218313598632812500e+02 5.796607055664062500e+02 6.326440429687500000e+02 6.520693969726562500e+02 6.289291992187500000e+02 6.291289062500000000e+02 6.583330078125000000e+02 5.878855590820312500e+02 5.138051147460937500e+02 4.373362426757812500e+02 3.777083740234375000e+02 3.763391113281250000e+02 4.071418151855468750e+02 4.894813537597656250e+02 5.340547485351562500e+02 5.591464843750000000e+02 5.785053710937500000e+02 6.113447875976562500e+02 6.615494384765625000e+02 6.273616333007812500e+02 6.244771728515625000e+02
3.645494384765625000e+02 3.741131286621093750e+02 3.770423278808593750e+02 4.421041870117187500e+02 4.783006591796875000e+02 4.295354309082031250e+02 3.774271545410156250e+02 3.975285949707031250e+02 3.588740539550781250e+02 3.239261474609375000e+02 3.173315734863281250e+02 3.727038574218750000e+02 3.494900817871093750e+02 3.626632080078125000e+02 3.752560424804687500e+02 4.180275573730468750e+02 4.773523559570312500e+02 5.165626220703125000e+02 5.894804687500000000e+02 6.481302490234375000e+02 7.638696289062500000e+02 7.655960083007812500e+02 6.733862304687500000e+02 6.187355957031250000e+02 6.672648925781250000e+02 6.118799438476562500e+02 5.654087524414062500e+02 6.279282226562500000e+02 6.160969848632812500e+02 5.930449218750000000e+02 5.685012207031250000e+02 5.554155883789062500e+02 4.734223327636718750e+02 4.591787414550781250e+02 4.020670166015625000e+02 3.295874633789062500e+02 3.145000000000000000e+02 3.145000000000000000e+02 3.408732910156250000e+02 3.734215087890625000e+02 3.163423156738281250e+02 3.145000000000000000e+02 3.204014282226562500e+02 3.754123840332031250e+02 3.611019897460937500e+02 3.656529541015625000e+02 4.358502807617187500e+02 4.754653015136718750e+02 4.494672851562500000e+02 4.729177246093750000e+02 4.939308776855468750e+02 5.631900634765625000e+02 5.626224365234375000e+02 6.237536621093750000e+02 6.691039428710937500e+02 6.546741943359375000e+02 7.216375122070312500e+02 6.460365600585937500e+02 5.818952636718750000e+02 5.278156738281250000e+02 4.351941833496093750e+02 4.901451416015625000e+02 4.462038574218750000e+02 3.944844970703125000e+02 4.358245239257812500e+02 4.870392150878906250e+02 5.431192016601562500e+02 5.979267578125000000e+02 6.050998535156250000e+02 6.497996215820312500e+02 6.789654541015625000e+02 6.598488159179687500e+02
3.698887634277343750e+02 3.566781311035156250e+02 3.797384643554687500e+02 4.468666992187500000e+02 4.754376220703125000e+02 4.077352294921875000e+02 3.600108947753906250e+02 3.840084838867187500e+02 3.717968139648437500e+02 3.409821166992187500e+02 3.172367553710937500e+02 3.237008972167968750e+02 3.709344482421875000e+02 4.022582092285156250e+02 3.860360107421875000e+02 4.371710205078125000e+02 5.342318725585937500e+02 5.813687744140625000e+02 6.525588378906250000e+02 6.962951049804687500e+02 7.917210693359375000e+02 7.486150512695312500e+02 6.693243408203125000e+02 6.101062011718750000e+02 6.510833740234375000e+02 5.982421875000000000e+02 5.568352050781250000e+02 5.825450439453125000e+02 5.753749389648437500e+02 5.665442504882812500e+02 5.393186645507812500e+02 5.493674926757812500e+02 4.586764221191406250e+02 4.247904663085937500e+02 3.930329589843750000e+02 3.145000000000000000e+02 3.160755310058593750e+02 3.145000000000000000e+02 3.145000000000000000e+02 3.183434143066406250e+02 3.145000000000000000e+02 3.160808105468750000e+02 3.538327026367187500e+02 4.067043151855468750e+02 3.792578430175781250e+02 3.563229980468750000e+02 4.325131835937500000e+02 4.794584350585937500e+02 4.957470703125000000e+02 5.306881103515625000e+02 5.114064636230468750e+02 5.194533691406250000e+02 5.503146972656250000e+02 6.109822387695312500e+02 6.423234863281250000e+02 6.733897705078125000e+02 7.030328979492187500e+02 6.930604248046875000e+02 6.032943115234375000e+02 5.335877685546875000e+02 4.510252685546875000e+02 5.142888793945312500e+02 4.708275146484375000e+02 4.020848693847656250e+02 4.692579040527343750e+02 5.120293579101562500e+02 5.497700805664062500e+02 5.570110473632812500e+02 5.790053100585937500e+02 6.157682495117187500e+02 6.751912841796875000e+02 6.719710693359375000e+02
3.552303771972656250e+02 3.454665222167968750e+02 3.608412170410156250e+02 3.897911987304687500e+02 4.365556640625000000e+02 4.064010925292968750e+02 3.529909362792968750e+02 3.478212280273437500e+02 3.377697753906250000e+02 3.145482788085937500e+02 3.186900024414062500e+02 4.012221069335937500e+02 3.684018554687500000e+02 3.877761230468750000e+02 4.184982604980468750e+02 4.452651672363281250e+02 5.017915649414062500e+02 5.919693603515625000e+02 6.975399780273437500e+02 8.101369018554687500e+02 7.912215576171875000e+02 7.156098632812500000e+02 6.439427490234375000e+02 5.794069824218750000e+02 6.210042114257812500e+02 5.959505615234375000e+02 5.457573242187500000e+02 5.389429931640625000e+02 5.357338256835937500e+02 5.447336425781250000e+02 5.301058349609375000e+02 5.321296386718750000e+02 4.437516479492187500e+02 4.228518676757812500e+02 3.399113769531250000e+02 3.181582641601562500e+02 4.125447387695312500e+02 4.086732788085937500e+02 3.942792053222656250e+02 3.761592407226562500e+02 3.572622070312500000e+02 3.993168945312500000e+02 4.173189086914062500e+02 4.506062622070312500e+02 4.050081787109375000e+02 3.218042602539062500e+02 4.224465026855468750e+02 4.911643371582031250e+02 5.362762451171875000e+02 5.423826904296875000e+02 5.494733886718750000e+02 5.493222656250000000e+02 5.464963378906250000e+02 5.471286621093750000e+02 6.078648681640625000e+02 6.259202880859375000e+02 6.820322265625000000e+02 7.052673950195312500e+02 6.383006591796875000e+02 5.388638305664062500e+02 4.968527221679687500e+02 6.013177490234375000e+02 5.686558837890625000e+02 4.692281188964843750e+02 4.370480651855468750e+02 4.459848937988281250e+02 4.861866149902343750e+02 5.346693115234375000e+02 5.515955200195312500e+02 6.163044433593750000e+02 6.530522460937500000e+02 7.032572631835937500e+02
3.438791809082031250e+02 3.280933532714843750e+02 3.502816467285156250e+02 3.526193237304687500e+02 3.912652587890625000e+02 3.776471862792968750e+02 3.263962097167968750e+02 3.135000000000000000e+02 3.163851013183593750e+02 3.341839294433593750e+02 3.770376281738281250e+02 4.092483215332031250e+02 4.424434814453125000e+02 4.420676574707031250e+02 4.709496459960937500e+02 4.383402709960937500e+02 5.352938232421875000e+02 5.710449218750000000e+02 6.780778808593750000e+02 7.880681152343750000e+02 7.867973632812500000e+02 6.955948486328125000e+02 6.258237915039062500e+02 5.780175170898437500e+02 5.654581298828125000e+02 5.423785400390625000e+02 5.373164672851562500e+02 5.251137695312500000e+02 5.017288513183593750e+02 5.207260742187500000e+02 5.247704467773437500e+02 5.225164794921875000e+02 4.405095214843750000e+02 4.227466125488281250e+02 3.177541503906250000e+02 3.359111633300781250e+02 4.227106628417968750e+02 4.799078369140625000e+02 4.826224365234375000e+02 4.670309143066406250e+02 4.001081848144531250e+02 4.492539978027343750e+02 4.862348937988281250e+02 4.868811645507812500e+02 4.417831420898437500e+02 3.627301330566406250e+02 3.950218811035156250e+02 4.959299926757812500e+02 5.009473571777343750e+02 4.966502685546875000e+02 4.923081054687500000e+02 5.135457763671875000e+02 5.318062744140625000e+02 5.694268798828125000e+02 5.764583129882812500e+02 6.073940429687500000e+02 6.560981445312500000e+02 7.067754516601562500e+02 6.849174194335937500e+02 5.959155273437500000e+02 5.488668823242187500e+02 6.104430541992187500e+02 6.190635986328125000e+02 5.615316162109375000e+02 5.532279052734375000e+02 5.339920654296875000e+02 5.090740356445312500e+02 5.212105102539062500e+02 5.884954833984375000e+02 5.906184692382812500e+02 6.426091308593750000e+02 7.188854980468750000e+02
3.601649475097656250e+02 3.251346435546875000e+02 3.391882019042968750e+02 3.585071105957031250e+02 3.862816467285156250e+02 3.518580017089843750e+02 3.135000000000000000e+02 3.135000000000000000e+02 3.570618286132812500e+02 3.834625244140625000e+02 4.002121887207031250e+02 4.103680725097656250e+02 4.495711669921875000e+02 4.258271484375000000e+02 4.490186462402343750e+02 4.323936157226562500e+02 5.005355224609375000e+02 5.757716064453125000e+02 6.778151245117187500e+02 7.760035400390625000e+02 8.018771362304687500e+02 7.037204589843750000e+02 6.385810546875000000e+02 5.932289428710937500e+02 5.216454467773437500e+02 5.110393676757812500e+02 5.492872314453125000e+02 5.257272949218750000e+02 4.901638793945312500e+02 4.996244812011718750e+02 5.219240112304687500e+02 5.301549682617187500e+02 4.444571228027343750e+02 4.336943969726562500e+02 3.594465026855468750e+02 3.160944824218750000e+02 4.158041992187500000e+02 4.898067016601562500e+02 5.120046997070312500e+02 4.770706787109375000e+02 4.064683837890625000e+02 4.597943115234375000e+02 5.162998046875000000e+02 5.147487182617187500e+02 4.524677734375000000e+02 3.867684936523437500e+02 3.856679077148437500e+02 4.705156860351562500e+02 4.547122497558593750e+02 4.551489868164062500e+02 5.017785034179687500e+02 5.653890380859375000e+02 5.817019042968750000e+02 5.588393554687500000e+02 5.806867675781250000e+02 6.179290771484375000e+02 6.405035400390625000e+02 6.912225341796875000e+02 6.874354248046875000e+02 6.659547729492187500e+02 6.026029052734375000e+02 6.450502929687500000e+02 6.553064575195312500e+02 6.414464111328125000e+02 6.175561523437500000e+02 6.044619750976562500e+02 5.783963623046875000e+02 5.936472167968750000e+02 6.554608764648437500e+02 6.354801025390625000e+02 6.604624023437500000e+02 7.055618286132812500e+02
3.407308349609375000e+02 3.524270935058593750e+02 3.150342407226562500e+02 3.357977294921875000e+02 3.826424560546875000e+02 3.251710815429687500e+02 3.135000000000000000e+02 3.135000000000000000e+02 3.135000000000000000e+02 3.338496093750000000e+02 3.928319396972656250e+02 3.807540283203125000e+02 4.261010742187500000e+02 4.067883911132812500e+02 3.913759460449218750e+02 4.288103027343750000e+02 4.677514038085937500e+02 5.476764526367187500e+02 6.566021728515625000e+02 7.431645507812500000e+02 8.150902099609375000e+02 7.687127685546875000e+02 6.795463867187500000e+02 6.378580932617187500e+02 5.598298339843750000e+02 4.895578308105468750e+02 4.883730163574218750e+02 5.150130004882812500e+02 4.620675048828125000e+02 4.527393188476562500e+02 5.009752502441406250e+02 4.961972656250000000e+02 4.248305358886718750e+02 3.644043579101562500e+02 3.145000000000000000e+02 3.766792297363281250e+02 4.531490173339843750e+02 5.114638671875000000e+02 5.468608398437500000e+02 5.183865966796875000e+02 4.743415222167968750e+02 4.482687072753906250e+02 4.997463378906250000e+02 5.409602050781250000e+02 4.852982482910156250e+02 4.232987670898437500e+02 3.822322692871093750e+02 4.220593872070312500e+02 4.091740112304687500e+02 4.807474975585937500e+02 5.686199951171875000e+02 6.194622802734375000e+02 6.588954467773437500e+02 6.796281127929687500e+02 6.458496093750000000e+02 6.400025634765625000e+02 6.281405029296875000e+02 6.745010986328125000e+02 7.314522705078125000e+02 7.306882934570312500e+02 7.208485717773437500e+02 7.422760009765625000e+02 7.330933837890625000e+02 7.367369384765625000e+02 7.087177734375000000e+02 6.833050537109375000e+02 6.491752929687500000e+02 7.094005126953125000e+02 7.442907714843750000e+02 7.282395019531250000e+02 7.121441650390625000e+02 7.019713134765625000e+02
