1.024154296875000000e+03 9.838084106445312500e+02 1.028158447265625000e+03 9.296008300781250000e+02 8.457808837890625000e+02 7.883365478515625000e+02 6.715100097656250000e+02 6.474373779296875000e+02 6.302844238281250000e+02 5.775435180664062500e+02 5.323833007812500000e+02 5.237723999023437500e+02 6.165277099609375000e+02 5.781590576171875000e+02 5.412402343750000000e+02 5.944622192382812500e+02 6.079557495117187500e+02 6.636234130859375000e+02 7.288432617187500000e+02 7.462116088867187500e+02 6.332030029296875000e+02 5.416119384765625000e+02 4.673451843261718750e+02 4.669102172851562500e+02 5.036332397460937500e+02 5.277438964843750000e+02 5.902556762695312500e+02 6.386493530273437500e+02 6.864554443359375000e+02 7.784188232421875000e+02 7.959531250000000000e+02 8.538814697265625000e+02 9.675144042968750000e+02 8.924960937500000000e+02 8.679505615234375000e+02 8.133522338867187500e+02 8.315704956054687500e+02 8.714749755859375000e+02 7.721639404296875000e+02 6.948609619140625000e+02 6.591289672851562500e+02 5.845506591796875000e+02 4.987493896484375000e+02 4.916662597656250000e+02 5.283713378906250000e+02 5.358869018554687500e+02 5.718186645507812500e+02 6.031668701171875000e+02 6.041896972656250000e+02 6.594114379882812500e+02 8.273560180664062500e+02 8.725720214843750000e+02 9.126356201171875000e+02 8.597912597656250000e+02 7.782944946289062500e+02 7.513495483398437500e+02 7.748331909179687500e+02
1.122272216796875000e+03 1.079251098632812500e+03 1.085541748046875000e+03 1.003114074707031250e+03 8.927785644531250000e+02 8.070543212890625000e+02 6.834295654296875000e+02 6.356304931640625000e+02 6.070439453125000000e+02 5.774678955078125000e+02 5.798883056640625000e+02 5.358766479492187500e+02 5.552057495117187500e+02 5.077617797851562500e+02 5.407598876953125000e+02 5.808734130859375000e+02 6.006202392578125000e+02 6.530202026367187500e+02 6.329981079101562500e+02 6.596419067382812500e+02 6.112207031250000000e+02 4.994987487792968750e+02 4.255667419433593750e+02 4.787452087402343750e+02 5.587180786132812500e+02 5.887844848632812500e+02 5.649707641601562500e+02 6.116279296875000000e+02 7.059869995117187500e+02 9.002039794921875000e+02 9.318256225585937500e+02 9.753380126953125000e+02 8.904313964843750000e+02 8.576494140625000000e+02 8.390162353515625000e+02 7.832764282226562500e+02 7.951149291992187500e+02 8.203887329101562500e+02 8.117436523437500000e+02 7.262973632812500000e+02 7.383262939453125000e+02 6.313154296875000000e+02 5.466170654296875000e+02 4.833277587890625000e+02 5.094165954589843750e+02 5.373555908203125000e+02 5.445479736328125000e+02 5.899184570312500000e+02 6.375761718750000000e+02 6.721235351562500000e+02 7.868237304687500000e+02 8.417514648437500000e+02 8.877083129882812500e+02 8.576800537109375000e+02 7.815366210937500000e+02 7.131840820312500000e+02 7.895292968750000000e+02
1.228596679687500000e+03 1.185190673828125000e+03 1.136171142578125000e+03 1.015306152343750000e+03 9.087207031250000000e+02 8.134585571289062500e+02 6.982329101562500000e+02 6.582849121093750000e+02 6.315168457031250000e+02 6.580303955078125000e+02 6.426377563476562500e+02 5.711885375976562500e+02 5.062300720214843750e+02 4.864842224121093750e+02 5.583553466796875000e+02 6.730411987304687500e+02 6.282174682617187500e+02 6.061122436523437500e+02 6.175159301757812500e+02 5.926920166015625000e+02 5.782420654296875000e+02 4.672822265625000000e+02 4.070491943359375000e+02 5.103824462890625000e+02 5.829893798828125000e+02 6.625279541015625000e+02 5.768576049804687500e+02 6.038676757812500000e+02 6.909512329101562500e+02 8.800990600585937500e+02 9.492972412109375000e+02 1.002041503906250000e+03 8.438485107421875000e+02 7.623794555664062500e+02 7.641837158203125000e+02 7.437517089843750000e+02 7.755491333007812500e+02 8.232598876953125000e+02 8.713798828125000000e+02 8.195860595703125000e+02 8.117164916992187500e+02 6.877860717773437500e+02 6.047556152343750000e+02 5.238579101562500000e+02 4.961104125976562500e+02 5.252159423828125000e+02 5.247967529296875000e+02 6.001257934570312500e+02 6.352100830078125000e+02 6.831975708007812500e+02 8.265115966796875000e+02 8.916364135742187500e+02 9.456768798828125000e+02 8.326134033203125000e+02 7.576406250000000000e+02 6.947200317382812500e+02 7.530518188476562500e+02
1.260105957031250000e+03 1.202953613281250000e+03 1.104677001953125000e+03 9.576249389648437500e+02 8.930989990234375000e+02 8.329990234375000000e+02 7.172850341796875000e+02 6.733001098632812500e+02 6.524066162109375000e+02 6.371907958984375000e+02 6.582675781250000000e+02 6.152996215820312500e+02 4.881651306152343750e+02 5.165682983398437500e+02 5.754055175781250000e+02 6.702571411132812500e+02 5.773513183593750000e+02 5.255374145507812500e+02 6.479985351562500000e+02 5.782416381835937500e+02 5.198061523437500000e+02 4.421940612792968750e+02 4.454077758789062500e+02 5.104495849609375000e+02 5.522811279296875000e+02 6.493052368164062500e+02 6.295758666992187500e+02 5.930620117187500000e+02 6.469178466796875000e+02 7.926432495117187500e+02 8.777679443359375000e+02 9.497645874023437500e+02 8.135100097656250000e+02 7.372772827148437500e+02 6.841679687500000000e+02 6.963904418945312500e+02 7.261930541992187500e+02 7.720118408203125000e+02 9.300392456054687500e+02 9.126134643554687500e+02 8.166977539062500000e+02 6.529455566406250000e+02 5.651389770507812500e+02 5.122225341796875000e+02 4.780992431640625000e+02 5.075268554687500000e+02 5.427277832031250000e+02 5.888175659179687500e+02 6.292097167968750000e+02 6.682363891601562500e+02 8.007680053710937500e+02 8.842097167968750000e+02 9.457394409179687500e+02 8.379658813476562500e+02 7.597044677734375000e+02 6.901580200195312500e+02 7.168266601562500000e+02
1.269148193359375000e+03 1.181476562500000000e+03 1.085553100585937500e+03 1.002702697753906250e+03 9.762916259765625000e+02 9.127849731445312500e+02 7.810565795898437500e+02 7.457637329101562500e+02 7.319024658203125000e+02 6.330509643554687500e+02 6.195809326171875000e+02 5.989781494140625000e+02 5.213864746093750000e+02 4.844227294921875000e+02 5.326705322265625000e+02 6.108017578125000000e+02 5.425310058593750000e+02 4.936302490234375000e+02 6.271529541015625000e+02 6.123292236328125000e+02 4.689031372070312500e+02 4.600370788574218750e+02 4.217297058105468750e+02 5.869288330078125000e+02 5.751361083984375000e+02 6.415475463867187500e+02 7.278459472656250000e+02 6.378716430664062500e+02 6.402100219726562500e+02 7.854110107421875000e+02 8.595190429687500000e+02 9.519753417968750000e+02 8.266798706054687500e+02 7.716646728515625000e+02 7.271469726562500000e+02 6.531253662109375000e+02 6.969666748046875000e+02 7.389262695312500000e+02 8.976672973632812500e+02 9.376364135742187500e+02 8.349814453125000000e+02 6.746019287109375000e+02 6.196193847656250000e+02 5.513819580078125000e+02 4.711930541992187500e+02 5.000755920410156250e+02 5.426181030273437500e+02 5.669605102539062500e+02 5.990521850585937500e+02 6.380996704101562500e+02 7.814071044921875000e+02 8.126434936523437500e+02 8.457706298828125000e+02 7.667097778320312500e+02 7.072401733398437500e+02 6.693615722656250000e+02 6.690640869140625000e+02
1.303978271484375000e+03 1.240966796875000000e+03 1.166160278320312500e+03 1.037378906250000000e+03 1.000177307128906250e+03 9.388029785156250000e+02 8.047640991210937500e+02 7.598083496093750000e+02 7.467493896484375000e+02 6.442968750000000000e+02 5.921013183593750000e+02 6.137708129882812500e+02 5.354548950195312500e+02 4.851016845703125000e+02 5.087287597656250000e+02 5.918927001953125000e+02 5.377401733398437500e+02 4.795061645507812500e+02 5.656934814453125000e+02 5.716063232421875000e+02 4.530596313476562500e+02 4.316907043457031250e+02 4.941000366210937500e+02 6.270266113281250000e+02 6.825183105468750000e+02 7.002536621093750000e+02 7.822843627929687500e+02 7.012644653320312500e+02 7.149918212890625000e+02 8.716437377929687500e+02 9.122746582031250000e+02 9.572717285156250000e+02 8.236527099609375000e+02 7.483645019531250000e+02 6.950353393554687500e+02 6.352712402343750000e+02 6.936055908203125000e+02 7.475099487304687500e+02 9.150654907226562500e+02 9.445247802734375000e+02 9.278275756835937500e+02 7.227965087890625000e+02 6.118221435546875000e+02 5.444468383789062500e+02 4.580107421875000000e+02 4.877029418945312500e+02 5.099876708984375000e+02 5.622241210937500000e+02 5.854229736328125000e+02 6.206143188476562500e+02 6.876726074218750000e+02 7.305156250000000000e+02 7.814310913085937500e+02 7.933570556640625000e+02 7.424593505859375000e+02 6.816640625000000000e+02 6.374967041015625000e+02
1.213914062500000000e+03 1.236370117187500000e+03 1.168771240234375000e+03 1.090310791015625000e+03 1.066185913085937500e+03 9.866313476562500000e+02 7.627653198242187500e+02 7.098763427734375000e+02 7.034463500976562500e+02 6.329269409179687500e+02 5.756898803710937500e+02 5.612894287109375000e+02 5.784715576171875000e+02 5.203873291015625000e+02 4.694329528808593750e+02 5.127141723632812500e+02 5.164071655273437500e+02 4.666514892578125000e+02 5.416250000000000000e+02 5.160039672851562500e+02 4.222788696289062500e+02 4.600293273925781250e+02 4.894927673339843750e+02 6.044643554687500000e+02 7.042567138671875000e+02 6.787868652343750000e+02 7.661893920898437500e+02 7.749357910156250000e+02 7.443526000976562500e+02 8.992592163085937500e+02 8.683510131835937500e+02 9.106680908203125000e+02 8.382769775390625000e+02 7.677012939453125000e+02 6.836479492187500000e+02 6.282841796875000000e+02 6.752199707031250000e+02 7.363571166992187500e+02 9.119556884765625000e+02 8.529791870117187500e+02 8.941489257812500000e+02 7.714598388671875000e+02 6.814774169921875000e+02 6.243861083984375000e+02 4.751621704101562500e+02 4.670851745605468750e+02 4.973734741210937500e+02 5.451929931640625000e+02 5.751433715820312500e+02 5.974979858398437500e+02 6.600476684570312500e+02 7.244520263671875000e+02 7.980739746093750000e+02 7.629287719726562500e+02 7.113558959960937500e+02 6.533422851562500000e+02 5.837223510742187500e+02
1.130319458007812500e+03 1.180184570312500000e+03 1.169589477539062500e+03 1.107387939453125000e+03 1.055072998046875000e+03 1.009370971679687500e+03 8.027613525390625000e+02 7.336473999023437500e+02 6.884389038085937500e+02 6.532962646484375000e+02 5.940524902343750000e+02 5.435181884765625000e+02 5.763260498046875000e+02 4.857008361816406250e+02 4.972801208496093750e+02 5.036779479980468750e+02 4.528392639160156250e+02 4.387509460449218750e+02 4.699697570800781250e+02 4.534523620605468750e+02 4.307410583496093750e+02 4.625743713378906250e+02 4.876663208007812500e+02 5.854772949218750000e+02 6.459190673828125000e+02 6.531586914062500000e+02 7.063290405273437500e+02 7.834558715820312500e+02 8.224263305664062500e+02 8.977924804687500000e+02 8.328527221679687500e+02 8.637910766601562500e+02 8.149622192382812500e+02 7.771719360351562500e+02 7.018736572265625000e+02 6.033909912109375000e+02 6.601226806640625000e+02 7.410930175781250000e+02 8.167370605468750000e+02 7.715625000000000000e+02 8.259541625976562500e+02 8.650499267578125000e+02 7.859111938476562500e+02 6.881871948242187500e+02 4.910455627441406250e+02 4.569455566406250000e+02 4.647934570312500000e+02 5.149416503906250000e+02 5.613925781250000000e+02 5.613915405273437500e+02 6.454442138671875000e+02 7.108887329101562500e+02 7.623577270507812500e+02 7.207520751953125000e+02 6.722835083007812500e+02 6.512926635742187500e+02 5.495344238281250000e+02
1.083512939453125000e+03 1.127363281250000000e+03 1.090823730468750000e+03 1.083587280273437500e+03 1.050980224609375000e+03 9.890029296875000000e+02 8.365291748046875000e+02 7.695577392578125000e+02 7.128582763671875000e+02 6.262769775390625000e+02 5.879650268554687500e+02 5.296864624023437500e+02 5.821237182617187500e+02 4.963927612304687500e+02 4.926434326171875000e+02 5.691617431640625000e+02 5.045640258789062500e+02 4.848967895507812500e+02 3.924940185546875000e+02 4.111658325195312500e+02 4.678991699218750000e+02 4.856602783203125000e+02 5.027894287109375000e+02 5.413378295898437500e+02 5.593468017578125000e+02 6.090615234375000000e+02 6.889249267578125000e+02 7.660172729492187500e+02 8.650893554687500000e+02 8.233972167968750000e+02 7.378027343750000000e+02 7.844688720703125000e+02 7.396153564453125000e+02 7.890466308593750000e+02 7.435716552734375000e+02 5.803788452148437500e+02 6.285339355468750000e+02 6.963869018554687500e+02 7.133811035156250000e+02 7.204387817382812500e+02 7.977582397460937500e+02 8.509666748046875000e+02 8.280247802734375000e+02 7.436085815429687500e+02 5.422683715820312500e+02 4.940685424804687500e+02 4.358675231933593750e+02 4.957437744140625000e+02 5.281396484375000000e+02 5.413488159179687500e+02 6.156491699218750000e+02 6.624411621093750000e+02 7.120485839843750000e+02 7.149974975585937500e+02 6.599228515625000000e+02 6.111718139648437500e+02 5.191434936523437500e+02
1.025362060546875000e+03 1.090076293945312500e+03 1.051161376953125000e+03 1.002631469726562500e+03 1.013810791015625000e+03 9.852708129882812500e+02 8.374782714843750000e+02 7.703959960937500000e+02 7.359899291992187500e+02 6.197086791992187500e+02 5.794243774414062500e+02 5.182241821289062500e+02 5.268474731445312500e+02 4.836655883789062500e+02 4.641587524414062500e+02 5.832677001953125000e+02 5.633505859375000000e+02 5.062123413085937500e+02 4.468708190917968750e+02 4.133124389648437500e+02 4.659772338867187500e+02 4.741618652343750000e+02 4.925258178710937500e+02 5.443707885742187500e+02 6.104796142578125000e+02 6.649644775390625000e+02 7.687919311523437500e+02 8.283568115234375000e+02 8.272422485351562500e+02 7.702056884765625000e+02 7.129384155273437500e+02 6.881708984375000000e+02 6.644813842773437500e+02 7.397969970703125000e+02 7.641566772460937500e+02 5.784719238281250000e+02 5.984771118164062500e+02 6.634456787109375000e+02 6.273485107421875000e+02 6.892023925781250000e+02 7.850942382812500000e+02 8.098161010742187500e+02 8.008851318359375000e+02 7.435340576171875000e+02 5.523782958984375000e+02 4.977359313964843750e+02 4.453309936523437500e+02 4.862035827636718750e+02 4.977851257324218750e+02 5.317875366210937500e+02 6.130025634765625000e+02 6.374293212890625000e+02 6.929822387695312500e+02 7.033457031250000000e+02 6.559431762695312500e+02 6.062361450195312500e+02 4.915588378906250000e+02
9.630803222656250000e+02 1.017484313964843750e+03 9.880256347656250000e+02 9.392158813476562500e+02 9.386323242187500000e+02 9.046527099609375000e+02 7.996570434570312500e+02 7.456230468750000000e+02 6.841745605468750000e+02 6.342554931640625000e+02 5.979933471679687500e+02 5.215401611328125000e+02 4.619818420410156250e+02 4.401144409179687500e+02 4.630993041992187500e+02 5.990562133789062500e+02 5.395020141601562500e+02 5.331126708984375000e+02 5.716463012695312500e+02 4.848030395507812500e+02 4.001639099121093750e+02 4.376767272949218750e+02 4.831997375488281250e+02 6.032624511718750000e+02 6.271390991210937500e+02 6.848586425781250000e+02 8.428217773437500000e+02 7.912484741210937500e+02 7.500832519531250000e+02 7.070617675781250000e+02 7.221640625000000000e+02 6.482805786132812500e+02 6.028027954101562500e+02 6.827987670898437500e+02 7.434396362304687500e+02 5.872652587890625000e+02 5.679062500000000000e+02 6.121539916992187500e+02 5.791263427734375000e+02 6.787351074218750000e+02 7.773380126953125000e+02 7.985444335937500000e+02 7.598966064453125000e+02 6.973339843750000000e+02 5.233810424804687500e+02 4.693702087402343750e+02 4.316599426269531250e+02 4.853339538574218750e+02 4.948037414550781250e+02 5.304481201171875000e+02 5.803073730468750000e+02 6.234915771484375000e+02 6.389465942382812500e+02 6.814121093750000000e+02 6.679199218750000000e+02 5.941822509765625000e+02 4.850576171875000000e+02
9.462325439453125000e+02 9.486060791015625000e+02 8.987254028320312500e+02 8.674747314453125000e+02 8.495002441406250000e+02 8.524610595703125000e+02 7.720819091796875000e+02 6.886260986328125000e+02 6.235900878906250000e+02 5.811470336914062500e+02 5.853456420898437500e+02 5.503394775390625000e+02 4.455958251953125000e+02 4.644950256347656250e+02 5.096753234863281250e+02 6.048322143554687500e+02 6.197610473632812500e+02 6.278408203125000000e+02 5.744508056640625000e+02 5.339644165039062500e+02 4.359049682617187500e+02 4.115652465820312500e+02 4.685314331054687500e+02 6.010853271484375000e+02 6.727834472656250000e+02 6.766775512695312500e+02 8.216424560546875000e+02 7.295892944335937500e+02 6.902470092773437500e+02 6.384232177734375000e+02 6.750539550781250000e+02 6.609183959960937500e+02 5.747515869140625000e+02 6.004564819335937500e+02 6.876082763671875000e+02 6.408926391601562500e+02 5.700872192382812500e+02 5.381016235351562500e+02 5.844354858398437500e+02 6.597830200195312500e+02 6.998132324218750000e+02 8.055639648437500000e+02 7.708696289062500000e+02 6.824299316406250000e+02 5.268369140625000000e+02 4.835817260742187500e+02 4.361599426269531250e+02 4.536325073242187500e+02 4.803390808105468750e+02 5.115131530761718750e+02 5.405906982421875000e+02 5.838762817382812500e+02 6.211558837890625000e+02 6.484374389648437500e+02 6.435369262695312500e+02 5.866779174804687500e+02 4.927730712890625000e+02
9.070144042968750000e+02 8.557652587890625000e+02 8.247988281250000000e+02 7.969049072265625000e+02 7.918342285156250000e+02 8.103434448242187500e+02 7.473554687500000000e+02 6.634060058593750000e+02 5.860025634765625000e+02 5.097012634277343750e+02 5.139775390625000000e+02 5.206242065429687500e+02 4.270458374023437500e+02 4.823047485351562500e+02 5.499219970703125000e+02 6.415941162109375000e+02 6.492499389648437500e+02 6.253973999023437500e+02 5.146639404296875000e+02 4.349082641601562500e+02 4.266452331542968750e+02 4.743648376464843750e+02 4.946652832031250000e+02 5.652094116210937500e+02 6.422408447265625000e+02 6.262083129882812500e+02 7.616458129882812500e+02 7.064989013671875000e+02 6.442187500000000000e+02 5.823882446289062500e+02 6.030415649414062500e+02 6.303668823242187500e+02 5.658273925781250000e+02 5.657635498046875000e+02 6.423029785156250000e+02 6.802468261718750000e+02 6.172635498046875000e+02 5.982360839843750000e+02 5.504448242187500000e+02 5.826942749023437500e+02 6.403131713867187500e+02 7.221309204101562500e+02 7.661110229492187500e+02 7.062118530273437500e+02 5.580467529296875000e+02 5.294311523437500000e+02 4.742659301757812500e+02 4.412459106445312500e+02 4.684608764648437500e+02 4.877498779296875000e+02 5.254123535156250000e+02 5.521878662109375000e+02 5.835089111328125000e+02 6.164273681640625000e+02 6.560684814453125000e+02 6.241845703125000000e+02 4.853872070312500000e+02
8.429605102539062500e+02 7.804305419921875000e+02 7.596571044921875000e+02 7.294249877929687500e+02 7.421171875000000000e+02 7.508989257812500000e+02 6.988361816406250000e+02 6.456881103515625000e+02 5.823991699218750000e+02 5.042119140625000000e+02 4.738073425292968750e+02 4.782455749511718750e+02 4.321336669921875000e+02 5.139556274414062500e+02 5.671843261718750000e+02 6.111282958984375000e+02 5.418529052734375000e+02 5.236033325195312500e+02 5.086801452636718750e+02 4.128528137207031250e+02 4.472646179199218750e+02 4.756467895507812500e+02 4.856373291015625000e+02 4.920266418457031250e+02 5.307465820312500000e+02 5.442081298828125000e+02 6.512596435546875000e+02 6.321830444335937500e+02 6.198222045898437500e+02 5.979504394531250000e+02 5.571829223632812500e+02 5.932221679687500000e+02 5.436386108398437500e+02 6.078269042968750000e+02 6.601771850585937500e+02 6.852719116210937500e+02 6.252570800781250000e+02 5.866494140625000000e+02 5.119587707519531250e+02 5.547518310546875000e+02 6.059957275390625000e+02 6.924072265625000000e+02 7.218391113281250000e+02 6.928242187500000000e+02 5.899444580078125000e+02 5.320104980468750000e+02 4.817849121093750000e+02 4.229893188476562500e+02 4.501033325195312500e+02 4.746160278320312500e+02 5.108684692382812500e+02 5.192606201171875000e+02 5.504849243164062500e+02 6.204774780273437500e+02 6.612348632812500000e+02 6.361914062500000000e+02 4.942523193359375000e+02
8.216123046875000000e+02 7.597362060546875000e+02 7.168554077148437500e+02 6.806108398437500000e+02 6.710166625976562500e+02 6.782694091796875000e+02 6.417618408203125000e+02 6.166105957031250000e+02 5.480742187500000000e+02 4.578101196289062500e+02 4.526905517578125000e+02 4.746287231445312500e+02 4.580015563964843750e+02 4.278348388671875000e+02 4.695332641601562500e+02 5.356572265625000000e+02 4.533834838867187500e+02 3.870625000000000000e+02 4.508625793457031250e+02 4.308597106933593750e+02 4.816283569335937500e+02 5.553133544921875000e+02 5.630646972656250000e+02 5.343562622070312500e+02 5.618489990234375000e+02 5.601746215820312500e+02 5.709253540039062500e+02 5.776931152343750000e+02 5.920630493164062500e+02 6.059114379882812500e+02 5.528760986328125000e+02 5.313915405273437500e+02 5.801468505859375000e+02 6.134082031250000000e+02 6.771142578125000000e+02 6.613684082031250000e+02 5.856035156250000000e+02 5.223407592773437500e+02 5.032308654785156250e+02 5.699791259765625000e+02 5.917786865234375000e+02 6.868369140625000000e+02 7.057817382812500000e+02 6.636501464843750000e+02 6.110292358398437500e+02 5.453118286132812500e+02 5.114214782714843750e+02 4.196125793457031250e+02 4.214486083984375000e+02 4.527099609375000000e+02 4.856839904785156250e+02 5.106994628906250000e+02 5.268422851562500000e+02 5.558629150390625000e+02 5.682964477539062500e+02 5.861296997070312500e+02 4.960468750000000000e+02
9.056614990234375000e+02 8.312197265625000000e+02 7.570662231445312500e+02 6.356071777343750000e+02 6.158663940429687500e+02 6.097036132812500000e+02 5.638313598632812500e+02 5.338272705078125000e+02 4.993359985351562500e+02 4.898197937011718750e+02 5.397503051757812500e+02 5.963157348632812500e+02 5.172664184570312500e+02 4.674908447265625000e+02 4.275132446289062500e+02 4.316621398925781250e+02 3.950517272949218750e+02 4.060763549804687500e+02 3.907901000976562500e+02 4.046876220703125000e+02 5.449415283203125000e+02 5.958307495117187500e+02 6.438398437500000000e+02 5.944770507812500000e+02 6.418284912109375000e+02 6.146881103515625000e+02 6.417900390625000000e+02 5.842172851562500000e+02 5.501771850585937500e+02 5.771549072265625000e+02 5.515997314453125000e+02 5.115330200195312500e+02 5.813298339843750000e+02 6.426318359375000000e+02 7.229273071289062500e+02 6.491402587890625000e+02 6.060476074218750000e+02 5.369305419921875000e+02 5.481009521484375000e+02 5.614242553710937500e+02 5.624424438476562500e+02 6.925730590820312500e+02 7.222791137695312500e+02 6.541653442382812500e+02 5.870185546875000000e+02 5.454333496093750000e+02 5.051868286132812500e+02 4.416108703613281250e+02 4.193270874023437500e+02 4.337131042480468750e+02 4.836389160156250000e+02 4.990140991210937500e+02 5.140546264648437500e+02 4.740443725585937500e+02 4.762289428710937500e+02 4.855412597656250000e+02 4.628858642578125000e+02
9.489140625000000000e+02 8.682172241210937500e+02 7.824959106445312500e+02 6.381408691406250000e+02 6.061390380859375000e+02 5.795340576171875000e+02 5.401618041992187500e+02 5.101874389648437500e+02 5.001674499511718750e+02 5.564508056640625000e+02 5.843660278320312500e+02 6.549638061523437500e+02 6.403523559570312500e+02 5.760939941406250000e+02 5.127982177734375000e+02 4.342985839843750000e+02 4.281002502441406250e+02 3.850275878906250000e+02 4.674157714843750000e+02 5.189824829101562500e+02 6.603562622070312500e+02 7.197821044921875000e+02 7.680216674804687500e+02 6.982678833007812500e+02 7.183205566406250000e+02 6.955435791015625000e+02 6.974022216796875000e+02 6.028859863281250000e+02 5.535089111328125000e+02 5.337806396484375000e+02 5.337337036132812500e+02 5.110061950683593750e+02 6.044732055664062500e+02 6.638792114257812500e+02 6.919779052734375000e+02 5.892990112304687500e+02 5.475953979492187500e+02 5.355939941406250000e+02 5.523221435546875000e+02 6.324444580078125000e+02 6.488713989257812500e+02 7.437645263671875000e+02 7.165754394531250000e+02 6.258135986328125000e+02 5.272263183593750000e+02 5.041125488281250000e+02 4.801372680664062500e+02 4.501312866210937500e+02 4.208283386230468750e+02 4.350289916992187500e+02 4.833563842773437500e+02 4.816647949218750000e+02 4.911944580078125000e+02 4.479730834960937500e+02 4.175108642578125000e+02 4.317819824218750000e+02 4.279107360839843750e+02
9.360242309570312500e+02 8.478124389648437500e+02 7.596671142578125000e+02 7.150119018554687500e+02 6.604990234375000000e+02 6.213682861328125000e+02 5.558054809570312500e+02 5.516898193359375000e+02 5.478139648437500000e+02 6.519553222656250000e+02 7.046456909179687500e+02 7.572847900390625000e+02 7.197088623046875000e+02 6.266875000000000000e+02 5.276519775390625000e+02 3.999804687500000000e+02 3.861121215820312500e+02 4.246891479492187500e+02 5.622273559570312500e+02 5.638913574218750000e+02 6.484831542968750000e+02 7.110234985351562500e+02 7.693948974609375000e+02 7.973352050781250000e+02 7.803552246093750000e+02 7.485961914062500000e+02 7.211192016601562500e+02 6.262932128906250000e+02 5.972120361328125000e+02 5.143462524414062500e+02 4.911954040527343750e+02 5.233909912109375000e+02 5.907058105468750000e+02 6.072283935546875000e+02 6.563765258789062500e+02 6.309849853515625000e+02 5.334973144531250000e+02 4.823680419921875000e+02 5.660040893554687500e+02 6.439093627929687500e+02 7.273839111328125000e+02 7.604495239257812500e+02 6.987654418945312500e+02 6.695133056640625000e+02 5.740582885742187500e+02 5.492105102539062500e+02 5.296056518554687500e+02 4.596188964843750000e+02 4.184914550781250000e+02 4.339674682617187500e+02 4.865150146484375000e+02 4.630690307617187500e+02 4.945740661621093750e+02 4.661387329101562500e+02 4.204002685546875000e+02 3.861119384765625000e+02 4.123894653320312500e+02
9.734172973632812500e+02 8.828095092773437500e+02 8.016316528320312500e+02 7.166581420898437500e+02 6.710450439453125000e+02 6.191977539062500000e+02 5.483225708007812500e+02 5.116653442382812500e+02 5.400596923828125000e+02 6.614463500976562500e+02 7.423024291992187500e+02 8.022496948242187500e+02 6.378961791992187500e+02 5.864404296875000000e+02 5.233585205078125000e+02 3.939036865234375000e+02 3.987916564941406250e+02 4.652055053710937500e+02 5.877241210937500000e+02 6.626847534179687500e+02 7.022150878906250000e+02 7.311305541992187500e+02 7.871626586914062500e+02 9.118432617187500000e+02 8.718633422851562500e+02 8.179465332031250000e+02 7.209658813476562500e+02 6.483462524414062500e+02 5.963285522460937500e+02 5.242493896484375000e+02 4.881937866210937500e+02 5.004591674804687500e+02 5.159895019531250000e+02 5.654035644531250000e+02 6.207252197265625000e+02 6.403630981445312500e+02 5.483852539062500000e+02 4.756573486328125000e+02 5.578045654296875000e+02 6.222243041992187500e+02 6.803777465820312500e+02 8.003356933593750000e+02 8.062540283203125000e+02 7.777268676757812500e+02 6.515434570312500000e+02 6.117135620117187500e+02 5.821930541992187500e+02 4.905196838378906250e+02 4.273185729980468750e+02 4.142066345214843750e+02 4.630823974609375000e+02 4.476162414550781250e+02 4.758998413085937500e+02 4.256816711425781250e+02 3.997724304199218750e+02 3.478161315917968750e+02 3.513691406250000000e+02
9.790222167968750000e+02 9.140976562500000000e+02 8.151097412109375000e+02 6.577410278320312500e+02 6.244212646484375000e+02 5.782366943359375000e+02 5.214577026367187500e+02 4.987237548828125000e+02 5.336764526367187500e+02 6.518358764648437500e+02 7.418961181640625000e+02 7.707509765625000000e+02 5.905986328125000000e+02 4.966639404296875000e+02 4.264966125488281250e+02 3.777898559570312500e+02 4.299355468750000000e+02 5.179495239257812500e+02 5.900092773437500000e+02 6.509603271484375000e+02 8.342033691406250000e+02 8.748767700195312500e+02 8.868752441406250000e+02 8.973723144531250000e+02 8.898544921875000000e+02 8.345396118164062500e+02 7.692244262695312500e+02 6.714066162109375000e+02 5.775749511718750000e+02 5.360743408203125000e+02 5.196727294921875000e+02 4.815111083984375000e+02 5.055917663574218750e+02 5.307229003906250000e+02 5.745757446289062500e+02 6.495651245117187500e+02 5.883465576171875000e+02 5.046882019042968750e+02 5.447567749023437500e+02 6.028442382812500000e+02 6.546439819335937500e+02 7.510436401367187500e+02 7.824918212890625000e+02 8.122875366210937500e+02 7.464416503906250000e+02 6.951213378906250000e+02 6.679703369140625000e+02 5.242077026367187500e+02 4.457305908203125000e+02 4.049407958984375000e+02 4.302945556640625000e+02 4.637393188476562500e+02 4.732573852539062500e+02 4.061421508789062500e+02 3.394722595214843750e+02 3.339013671875000000e+02 3.517640991210937500e+02
9.795169677734375000e+02 9.075493164062500000e+02 8.223951416015625000e+02 6.796920166015625000e+02 6.309747314453125000e+02 5.725721435546875000e+02 5.011293334960937500e+02 4.757475280761718750e+02 5.011231079101562500e+02 6.197260131835937500e+02 7.011895141601562500e+02 6.990205078125000000e+02 5.649987182617187500e+02 4.853243103027343750e+02 3.641677246093750000e+02 4.972697143554687500e+02 5.385004272460937500e+02 5.988891601562500000e+02 6.675941162109375000e+02 7.116608276367187500e+02 8.655029907226562500e+02 9.023986816406250000e+02 9.138053588867187500e+02 8.089988403320312500e+02 7.706372680664062500e+02 7.537736206054687500e+02 7.267890014648437500e+02 6.916572875976562500e+02 6.285671386718750000e+02 5.774035644531250000e+02 5.593621826171875000e+02 5.380149536132812500e+02 4.973153076171875000e+02 5.069278869628906250e+02 5.321977539062500000e+02 6.393037109375000000e+02 5.467302246093750000e+02 4.923123779296875000e+02 5.545786743164062500e+02 5.618040771484375000e+02 5.634678955078125000e+02 6.700362548828125000e+02 7.342008056640625000e+02 7.985759887695312500e+02 7.314127197265625000e+02 6.973823852539062500e+02 6.700092163085937500e+02 5.684237060546875000e+02 5.009580078125000000e+02 4.411311645507812500e+02 4.254135437011718750e+02 4.818278198242187500e+02 4.918743896484375000e+02 3.876064453125000000e+02 3.282937011718750000e+02 3.314636840820312500e+02 4.026969604492187500e+02
9.123234863281250000e+02 9.224610595703125000e+02 8.715510253906250000e+02 6.676485595703125000e+02 6.266096191406250000e+02 5.864906005859375000e+02 5.193058471679687500e+02 4.636732177734375000e+02 4.740300292968750000e+02 5.917510375976562500e+02 6.552785644531250000e+02 6.445859985351562500e+02 5.469914550781250000e+02 4.486228027343750000e+02 3.654097595214843750e+02 4.971862487792968750e+02 5.575197753906250000e+02 6.063366088867187500e+02 7.577106933593750000e+02 7.849149169921875000e+02 8.738770751953125000e+02 9.198225097656250000e+02 9.340670166015625000e+02 7.614650268554687500e+02 7.174920654296875000e+02 6.654478149414062500e+02 6.114418334960937500e+02 6.171054687500000000e+02 6.229818725585937500e+02 5.568114013671875000e+02 5.393662109375000000e+02 5.151340942382812500e+02 4.988796386718750000e+02 5.685475463867187500e+02 5.961547241210937500e+02 6.442473144531250000e+02 5.879401245117187500e+02 5.032522583007812500e+02 4.756703796386718750e+02 4.811806030273437500e+02 5.053515625000000000e+02 6.380986328125000000e+02 6.971502685546875000e+02 7.556052246093750000e+02 7.485484619140625000e+02 6.897639160156250000e+02 6.247460937500000000e+02 6.108806152343750000e+02 5.615982055664062500e+02 4.614547729492187500e+02 4.560064697265625000e+02 4.945504760742187500e+02 5.000275573730468750e+02 4.063280639648437500e+02 3.310979614257812500e+02 3.728034057617187500e+02 4.450702514648437500e+02
8.213192749023437500e+02 7.905773315429687500e+02 7.708654785156250000e+02 6.448114624023437500e+02 5.808312988281250000e+02 5.440863647460937500e+02 5.306738281250000000e+02 4.715586242675781250e+02 4.457034301757812500e+02 5.702545166015625000e+02 5.851289062500000000e+02 5.383659667968750000e+02 5.109803466796875000e+02 4.232553405761718750e+02 3.794591064453125000e+02 5.301875610351562500e+02 6.143047485351562500e+02 6.674173583984375000e+02 7.798998413085937500e+02 8.393979492187500000e+02 8.383602905273437500e+02 8.734561767578125000e+02 9.063211669921875000e+02 8.220859985351562500e+02 7.350266723632812500e+02 6.777485351562500000e+02 6.007547607421875000e+02 5.800612792968750000e+02 5.662573242187500000e+02 5.117703247070312500e+02 5.063241882324218750e+02 4.906853027343750000e+02 4.580091552734375000e+02 5.193083496093750000e+02 5.715800781250000000e+02 6.439970703125000000e+02 6.035312500000000000e+02 5.610827636718750000e+02 5.114671630859375000e+02 4.481824951171875000e+02 4.794613952636718750e+02 5.996078491210937500e+02 6.584926757812500000e+02 7.196574707031250000e+02 6.985557861328125000e+02 6.564997558593750000e+02 6.186231079101562500e+02 5.923314819335937500e+02 5.932769775390625000e+02 5.216915893554687500e+02 3.928829650878906250e+02 4.120758666992187500e+02 4.337837829589843750e+02 3.491813964843750000e+02 3.793823547363281250e+02 4.609632263183593750e+02 5.177510375976562500e+02
7.786251831054687500e+02 7.287687377929687500e+02 6.809084472656250000e+02 5.972608032226562500e+02 5.489542846679687500e+02 5.180984497070312500e+02 5.211130371093750000e+02 4.603660888671875000e+02 4.349568481445312500e+02 5.541021728515625000e+02 5.213684082031250000e+02 4.652966918945312500e+02 4.902416076660156250e+02 3.961856994628906250e+02 3.838053894042968750e+02 4.973915405273437500e+02 5.700491943359375000e+02 6.508524169921875000e+02 7.401190185546875000e+02 8.288377075195312500e+02 7.682916259765625000e+02 7.917915039062500000e+02 8.486821899414062500e+02 8.788529052734375000e+02 7.761950683593750000e+02 7.166924438476562500e+02 6.310266723632812500e+02 6.038111572265625000e+02 5.940177612304687500e+02 5.412060546875000000e+02 5.333937377929687500e+02 5.293580932617187500e+02 4.384627990722656250e+02 4.852362365722656250e+02 5.449998168945312500e+02 6.966112670898437500e+02 6.537768554687500000e+02 6.279355468750000000e+02 5.305451660156250000e+02 4.513558959960937500e+02 4.743421630859375000e+02 6.045507812500000000e+02 6.639874267578125000e+02 7.127665405273437500e+02 7.383999633789062500e+02 6.851676635742187500e+02 6.298188476562500000e+02 5.448952636718750000e+02 5.653564453125000000e+02 5.643231201171875000e+02 4.711919555664062500e+02 4.359007568359375000e+02 3.871582641601562500e+02 3.579940185546875000e+02 4.617460021972656250e+02 5.273244628906250000e+02 5.744482421875000000e+02
7.050243530273437500e+02 6.935258789062500000e+02 6.871549072265625000e+02 5.722706298828125000e+02 5.147354736328125000e+02 4.949273071289062500e+02 4.843255615234375000e+02 4.439729614257812500e+02 4.266358032226562500e+02 5.116606445312500000e+02 4.664277954101562500e+02 4.135304260253906250e+02 4.709307861328125000e+02 3.938323974609375000e+02 3.724003295898437500e+02 4.734138793945312500e+02 5.253830566406250000e+02 5.758386840820312500e+02 7.091967163085937500e+02 7.518581542968750000e+02 7.563087768554687500e+02 8.219343261718750000e+02 8.434375610351562500e+02 8.176101074218750000e+02 7.680040283203125000e+02 6.928583984375000000e+02 6.572180175781250000e+02 6.467314453125000000e+02 6.380826416015625000e+02 5.323705444335937500e+02 4.926452941894531250e+02 4.926240234375000000e+02 4.338037414550781250e+02 5.080088500976562500e+02 5.931929931640625000e+02 6.871700439453125000e+02 6.841883544921875000e+02 5.954203491210937500e+02 5.204696655273437500e+02 4.561363525390625000e+02 4.425323181152343750e+02 5.857962036132812500e+02 6.609622802734375000e+02 7.264842529296875000e+02 7.606032714843750000e+02 7.181156005859375000e+02 6.653553466796875000e+02 5.656707153320312500e+02 5.343797607421875000e+02 5.292905273437500000e+02 5.312255859375000000e+02 4.688045349121093750e+02 4.169904479980468750e+02 3.679722290039062500e+02 4.887471008300781250e+02 5.529226074218750000e+02 6.152116088867187500e+02
6.295006103515625000e+02 6.196552734375000000e+02 6.377622070312500000e+02 5.720880737304687500e+02 5.163672485351562500e+02 4.699966430664062500e+02 4.214926757812500000e+02 4.038010864257812500e+02 4.281477966308593750e+02 4.690153198242187500e+02 4.342606201171875000e+02 4.022204284667968750e+02 3.966258239746093750e+02 3.607410278320312500e+02 3.744116821289062500e+02 4.846055297851562500e+02 5.414873046875000000e+02 5.757490234375000000e+02 6.338111572265625000e+02 6.581840209960937500e+02 7.504977416992187500e+02 8.211746826171875000e+02 7.821530151367187500e+02 7.301154174804687500e+02 6.810604248046875000e+02 6.481405029296875000e+02 5.771921386718750000e+02 5.530333862304687500e+02 5.547929077148437500e+02 5.319605712890625000e+02 5.057070007324218750e+02 4.839036865234375000e+02 4.293251342773437500e+02 4.852044067382812500e+02 5.456532592773437500e+02 6.787239990234375000e+02 6.931729125976562500e+02 6.187999877929687500e+02 4.939873046875000000e+02 4.401549682617187500e+02 4.224521179199218750e+02 5.743412475585937500e+02 6.532930908203125000e+02 6.464716796875000000e+02 7.466697998046875000e+02 7.623128051757812500e+02 7.314546508789062500e+02 6.260775756835937500e+02 5.913507690429687500e+02 5.399163818359375000e+02 4.845516052246093750e+02 4.593796081542968750e+02 4.459165954589843750e+02 3.976543884277343750e+02 4.990397033691406250e+02 5.531019897460937500e+02 6.143779907226562500e+02
5.811339721679687500e+02 5.709185180664062500e+02 5.753992309570312500e+02 5.273523559570312500e+02 5.099246826171875000e+02 4.793186950683593750e+02 4.024595336914062500e+02 4.044397888183593750e+02 4.140999755859375000e+02 4.217689208984375000e+02 3.903230895996093750e+02 3.976201477050781250e+02 3.690697631835937500e+02 3.709078063964843750e+02 3.868158569335937500e+02 4.796857299804687500e+02 5.309385986328125000e+02 5.656221313476562500e+02 5.804801025390625000e+02 6.320456542968750000e+02 7.565837402343750000e+02 8.078109130859375000e+02 7.644991455078125000e+02 6.698344116210937500e+02 6.016607055664062500e+02 5.940980224609375000e+02 5.757094116210937500e+02 5.281030273437500000e+02 5.016004028320312500e+02 4.639391479492187500e+02 4.529126586914062500e+02 4.723992309570312500e+02 4.112865295410156250e+02 4.196888427734375000e+02 5.144636840820312500e+02 6.425118408203125000e+02 6.922648315429687500e+02 6.116540527343750000e+02 4.796194152832031250e+02 4.195037841796875000e+02 4.288512573242187500e+02 5.319213867187500000e+02 5.926173095703125000e+02 5.603130493164062500e+02 6.822486572265625000e+02 6.908229980468750000e+02 7.464959716796875000e+02 6.888892822265625000e+02 6.266013183593750000e+02 5.880926513671875000e+02 5.084281005859375000e+02 4.912460021972656250e+02 4.439521789550781250e+02 3.814933471679687500e+02 4.820024719238281250e+02 5.457414550781250000e+02 6.057528686523437500e+02
5.526056518554687500e+02 5.276182861328125000e+02 5.146821899414062500e+02 4.798368530273437500e+02 4.625402832031250000e+02 4.472533569335937500e+02 3.872265930175781250e+02 3.924626464843750000e+02 4.083767700195312500e+02 3.752627563476562500e+02 3.435948181152343750e+02 3.453586425781250000e+02 4.056544799804687500e+02 4.888716125488281250e+02 4.465344848632812500e+02 4.356555480957031250e+02 4.519718627929687500e+02 4.883246765136718750e+02 5.934244995117187500e+02 6.697962646484375000e+02 7.689988403320312500e+02 8.117299804687500000e+02 7.343889160156250000e+02 5.724766845703125000e+02 5.427344360351562500e+02 5.213372802734375000e+02 5.828718261718750000e+02 5.369644165039062500e+02 5.333206787109375000e+02 4.738380432128906250e+02 4.578851318359375000e+02 4.543306274414062500e+02 4.383913574218750000e+02 4.132056579589843750e+02 4.860129089355468750e+02 6.004575805664062500e+02 6.639790039062500000e+02 6.201865844726562500e+02 4.496743469238281250e+02 4.158123474121093750e+02 4.721901550292968750e+02 5.304438476562500000e+02 5.255057373046875000e+02 4.914393310546875000e+02 6.086431884765625000e+02 6.596228637695312500e+02 6.733935546875000000e+02 6.771281738281250000e+02 6.492930908203125000e+02 6.372260742187500000e+02 4.677064514160156250e+02 4.339198303222656250e+02 4.007541809082031250e+02 4.105216369628906250e+02 4.693088684082031250e+02 5.229365844726562500e+02 5.963458251953125000e+02
6.235166625976562500e+02 5.816431884765625000e+02 5.129815673828125000e+02 4.360384826660156250e+02 4.150201416015625000e+02 3.951755371093750000e+02 3.816141357421875000e+02 3.603794860839843750e+02 3.895502319335937500e+02 3.714975891113281250e+02 3.391645507812500000e+02 3.349311828613281250e+02 4.348606262207031250e+02 5.154141235351562500e+02 5.376109619140625000e+02 5.446873779296875000e+02 4.920687561035156250e+02 4.938253173828125000e+02 5.744027099609375000e+02 6.606452026367187500e+02 7.649717407226562500e+02 8.327937011718750000e+02 7.561278076171875000e+02 5.329732055664062500e+02 5.025019531250000000e+02 4.783526000976562500e+02 5.417916259765625000e+02 5.686007080078125000e+02 5.583423461914062500e+02 4.852717285156250000e+02 5.213015747070312500e+02 5.128262329101562500e+02 4.752856750488281250e+02 4.116553344726562500e+02 4.233611145019531250e+02 5.526311035156250000e+02 6.150943603515625000e+02 6.233143920898437500e+02 4.457103271484375000e+02 4.068987121582031250e+02 5.078883666992187500e+02 4.979374389648437500e+02 4.511243286132812500e+02 4.399214477539062500e+02 5.085357971191406250e+02 5.787568359375000000e+02 5.983211669921875000e+02 5.575218505859375000e+02 5.488438110351562500e+02 6.230357055664062500e+02 4.830551757812500000e+02 3.998729248046875000e+02 3.377452392578125000e+02 4.673703002929687500e+02 4.876756591796875000e+02 5.187326049804687500e+02 5.874616699218750000e+02
6.571788330078125000e+02 6.023928833007812500e+02 5.560267944335937500e+02 4.680400085449218750e+02 4.520787353515625000e+02 4.423229370117187500e+02 4.300169982910156250e+02 4.167216491699218750e+02 3.476710510253906250e+02 3.727988586425781250e+02 3.777073364257812500e+02 3.378250732421875000e+02 4.390064697265625000e+02 5.269777832031250000e+02 6.072622070312500000e+02 6.140358886718750000e+02 6.086230468750000000e+02 5.887758178710937500e+02 5.653554687500000000e+02 6.367391357421875000e+02 7.637355346679687500e+02 8.697834472656250000e+02 7.999337158203125000e+02 5.641594238281250000e+02 4.883811645507812500e+02 4.495848083496093750e+02 4.775569152832031250e+02 5.312949218750000000e+02 5.708955688476562500e+02 5.488961791992187500e+02 5.645824584960937500e+02 5.197767944335937500e+02 4.475390319824218750e+02 4.163918457031250000e+02 3.786135253906250000e+02 4.952276306152343750e+02 5.569752807617187500e+02 6.198323974609375000e+02 4.712221374511718750e+02 3.969778442382812500e+02 4.723491516113281250e+02 4.735859069824218750e+02 4.302418212890625000e+02 4.104220581054687500e+02 4.407370910644531250e+02 5.160322265625000000e+02 5.005736694335937500e+02 4.669066772460937500e+02 5.407797851562500000e+02 6.012110595703125000e+02 4.686709289550781250e+02 3.653968200683593750e+02 3.371871032714843750e+02 4.755793457031250000e+02 5.201089477539062500e+02 5.466357421875000000e+02 5.706572875976562500e+02
6.572859497070312500e+02 6.125974121093750000e+02 5.728166503906250000e+02 4.827068786621093750e+02 4.460957336425781250e+02 4.064306030273437500e+02 4.136058349609375000e+02 4.031933898925781250e+02 3.749079589843750000e+02 3.246005249023437500e+02 3.358361511230468750e+02 3.478810729980468750e+02 4.543618164062500000e+02 5.346967773437500000e+02 6.216290283203125000e+02 6.399361572265625000e+02 6.886430053710937500e+02 7.094950561523437500e+02 6.401149291992187500e+02 6.753103027343750000e+02 7.778334960937500000e+02 8.328684692382812500e+02 7.932869873046875000e+02 5.970435180664062500e+02 5.072768249511718750e+02 4.381269226074218750e+02 4.410205383300781250e+02 4.968271484375000000e+02 5.391193237304687500e+02 5.153964843750000000e+02 5.482550048828125000e+02 5.359318847656250000e+02 4.865021972656250000e+02 4.515663452148437500e+02 3.689698181152343750e+02 4.584721069335937500e+02 5.198009033203125000e+02 6.006098632812500000e+02 4.849001464843750000e+02 3.908575439453125000e+02 4.575297241210937500e+02 3.886573181152343750e+02 3.756052856445312500e+02 3.441164245605468750e+02 3.477694091796875000e+02 3.998643188476562500e+02 4.148995361328125000e+02 4.509205017089843750e+02 4.950034179687500000e+02 5.570216674804687500e+02 4.675264892578125000e+02 3.599940795898437500e+02 3.355742187500000000e+02 4.624430541992187500e+02 4.903912048339843750e+02 5.173765869140625000e+02 5.166568603515625000e+02
6.011447143554687500e+02 5.926055908203125000e+02 5.497346191406250000e+02 4.542542114257812500e+02 4.080905761718750000e+02 3.661160278320312500e+02 3.798927001953125000e+02 3.748434753417968750e+02 3.598510131835937500e+02 3.189256896972656250e+02 3.515680541992187500e+02 4.058889770507812500e+02 4.782483520507812500e+02 5.135247802734375000e+02 5.775432739257812500e+02 6.730170288085937500e+02 7.163471069335937500e+02 7.756166992187500000e+02 7.492451171875000000e+02 7.181834106445312500e+02 7.430438842773437500e+02 7.181431884765625000e+02 7.038132934570312500e+02 6.152269287109375000e+02 5.012213439941406250e+02 4.532937011718750000e+02 4.172233886718750000e+02 4.605600585937500000e+02 4.981462402343750000e+02 4.777269592285156250e+02 4.642858886718750000e+02 5.155845336914062500e+02 4.621308288574218750e+02 3.834950561523437500e+02 3.390838317871093750e+02 4.459183349609375000e+02 5.085076599121093750e+02 5.407600708007812500e+02 5.032112426757812500e+02 4.008446350097656250e+02 3.964168090820312500e+02 3.196592407226562500e+02 3.558497009277343750e+02 3.785266418457031250e+02 3.609371643066406250e+02 3.303618774414062500e+02 3.258097534179687500e+02 3.925875854492187500e+02 4.522870178222656250e+02 5.233087158203125000e+02 4.262059936523437500e+02 3.659392089843750000e+02 3.259089660644531250e+02 4.218793334960937500e+02 4.260461730957031250e+02 4.577689819335937500e+02 4.788905639648437500e+02
5.102019042968750000e+02 5.188295898437500000e+02 5.115576477050781250e+02 4.323420104980468750e+02 3.876078186035156250e+02 3.553538208007812500e+02 3.416942749023437500e+02 3.356831054687500000e+02 3.177875976562500000e+02 3.184545288085937500e+02 3.293152465820312500e+02 3.700541381835937500e+02 4.288784484863281250e+02 4.734523315429687500e+02 5.111594238281250000e+02 6.344783325195312500e+02 6.974299316406250000e+02 7.278522949218750000e+02 7.491301879882812500e+02 7.084120483398437500e+02 6.410631103515625000e+02 6.112199707031250000e+02 6.443504638671875000e+02 6.115748291015625000e+02 5.202285766601562500e+02 4.736702270507812500e+02 3.919284362792968750e+02 4.153484497070312500e+02 4.351601867675781250e+02 4.432360229492187500e+02 4.567990112304687500e+02 4.969676818847656250e+02 4.471608276367187500e+02 3.713771362304687500e+02 3.502805175781250000e+02 4.395537719726562500e+02 4.818336791992187500e+02 4.851219177246093750e+02 4.172768859863281250e+02 3.784828796386718750e+02 3.286361999511718750e+02 3.723466186523437500e+02 4.305002441406250000e+02 4.735013732910156250e+02 4.780702819824218750e+02 4.484119873046875000e+02 3.948217773437500000e+02 3.520372924804687500e+02 4.214602661132812500e+02 4.440610961914062500e+02 3.412825927734375000e+02 3.706711730957031250e+02 3.775356140136718750e+02 3.805922241210937500e+02 4.323630065917968750e+02 4.514660644531250000e+02 4.591207275390625000e+02
4.475729980468750000e+02 4.706575317382812500e+02 4.831492919921875000e+02 3.982261352539062500e+02 3.692289733886718750e+02 3.584945678710937500e+02 3.795791320800781250e+02 3.380196838378906250e+02 3.178515930175781250e+02 3.549391479492187500e+02 3.749718017578125000e+02 4.267346496582031250e+02 4.065072021484375000e+02 4.220814819335937500e+02 4.503121643066406250e+02 5.944013671875000000e+02 6.764517211914062500e+02 6.975220947265625000e+02 7.228576660156250000e+02 6.879104614257812500e+02 5.869562988281250000e+02 6.095512695312500000e+02 6.464197998046875000e+02 5.519134521484375000e+02 4.944332275390625000e+02 4.405018615722656250e+02 3.841066284179687500e+02 3.809442749023437500e+02 3.732545776367187500e+02 4.045774841308593750e+02 4.388059082031250000e+02 5.037824707031250000e+02 4.908706970214843750e+02 4.195536804199218750e+02 3.342120666503906250e+02 4.304040832519531250e+02 4.501853942871093750e+02 4.068792724609375000e+02 3.277551574707031250e+02 3.585094299316406250e+02 4.174965209960937500e+02 4.962278442382812500e+02 5.057706298828125000e+02 5.397986450195312500e+02 5.401697387695312500e+02 5.597728271484375000e+02 4.771447143554687500e+02 3.182200317382812500e+02 3.380714111328125000e+02 3.329615478515625000e+02 4.209866027832031250e+02 4.724257812500000000e+02 4.889512329101562500e+02 4.621335449218750000e+02 4.794051513671875000e+02 5.411146240234375000e+02 5.267988281250000000e+02
3.939610595703125000e+02 4.170253906250000000e+02 4.501641540527343750e+02 4.390683288574218750e+02 4.210167541503906250e+02 3.683004455566406250e+02 3.552740783691406250e+02 3.237616577148437500e+02 3.199427490234375000e+02 3.977412109375000000e+02 4.258984375000000000e+02 4.612534484863281250e+02 5.052814941406250000e+02 5.155114746093750000e+02 5.265828247070312500e+02 5.957371215820312500e+02 6.578715820312500000e+02 7.118442993164062500e+02 7.041691894531250000e+02 7.099790039062500000e+02 5.912156372070312500e+02 6.046453247070312500e+02 6.258792114257812500e+02 5.652147827148437500e+02 5.018356933593750000e+02 4.554552001953125000e+02 4.005467834472656250e+02 4.235523376464843750e+02 3.470753784179687500e+02 3.784656372070312500e+02 4.128446960449218750e+02 4.705718994140625000e+02 4.510662231445312500e+02 4.166513366699218750e+02 3.645709533691406250e+02 3.478317260742187500e+02 3.465760803222656250e+02 3.313890686035156250e+02 4.196142578125000000e+02 4.973133239746093750e+02 5.591162109375000000e+02 5.793950805664062500e+02 6.187845458984375000e+02 6.239399414062500000e+02 5.479438476562500000e+02 6.170435791015625000e+02 5.596738281250000000e+02 3.987120971679687500e+02 3.422826538085937500e+02 3.532679138183593750e+02 4.936089477539062500e+02 5.275701904296875000e+02 5.743662109375000000e+02 5.926642456054687500e+02 5.926530761718750000e+02 6.194047241210937500e+02 5.847204589843750000e+02
3.716093444824218750e+02 3.870114135742187500e+02 4.151467285156250000e+02 4.846573486328125000e+02 4.337609863281250000e+02 3.721658935546875000e+02 3.399287414550781250e+02 3.161962280273437500e+02 3.240482177734375000e+02 3.891896972656250000e+02 3.861999816894531250e+02 3.981458129882812500e+02 4.742054443359375000e+02 5.219390869140625000e+02 5.813483886718750000e+02 7.008862304687500000e+02 7.631712646484375000e+02 7.502540893554687500e+02 6.719014892578125000e+02 7.015667114257812500e+02 5.835120239257812500e+02 6.022863769531250000e+02 6.454340820312500000e+02 5.878408813476562500e+02 5.291756591796875000e+02 4.685841979980468750e+02 4.433159790039062500e+02 4.446636352539062500e+02 3.867838439941406250e+02 3.412584533691406250e+02 4.057981872558593750e+02 4.366793212890625000e+02 3.426329345703125000e+02 3.187495727539062500e+02 3.183664245605468750e+02 3.229548034667968750e+02 3.785857238769531250e+02 4.331390991210937500e+02 4.888632507324218750e+02 5.050560913085937500e+02 5.552714843750000000e+02 5.830460205078125000e+02 6.351408081054687500e+02 6.736421508789062500e+02 6.437336425781250000e+02 6.617416381835937500e+02 5.910051269531250000e+02 4.600189819335937500e+02 4.083418273925781250e+02 3.982040405273437500e+02 4.418558959960937500e+02 4.913819580078125000e+02 5.284157104492187500e+02 5.817667236328125000e+02 6.241317749023437500e+02 6.687897949218750000e+02 6.347184448242187500e+02
3.627221679687500000e+02 3.637601013183593750e+02 3.924506225585937500e+02 4.625708618164062500e+02 4.013124389648437500e+02 3.688371887207031250e+02 3.674747009277343750e+02 3.441288452148437500e+02 3.163061523437500000e+02 3.510014038085937500e+02 3.800901489257812500e+02 3.807527465820312500e+02 4.755936279296875000e+02 5.136782226562500000e+02 5.659347534179687500e+02 6.966447753906250000e+02 7.880319824218750000e+02 7.344220581054687500e+02 6.278546142578125000e+02 6.595008544921875000e+02 5.682091064453125000e+02 5.992258300781250000e+02 5.990417480468750000e+02 5.569020385742187500e+02 5.539224853515625000e+02 5.035134887695312500e+02 4.338360595703125000e+02 3.708781738281250000e+02 3.183676147460937500e+02 3.161577148437500000e+02 3.333074951171875000e+02 3.455936584472656250e+02 3.148952026367187500e+02 3.290621337890625000e+02 3.808413391113281250e+02 3.378846130371093750e+02 4.199480590820312500e+02 4.666892395019531250e+02 4.769656677246093750e+02 5.063083801269531250e+02 5.112627563476562500e+02 5.712031250000000000e+02 6.313946533203125000e+02 6.524056396484375000e+02 7.061925048828125000e+02 6.878043823242187500e+02 6.090775756835937500e+02 4.646630554199218750e+02 4.819886169433593750e+02 4.802784423828125000e+02 4.236335449218750000e+02 4.612933654785156250e+02 5.142493896484375000e+02 5.814404907226562500e+02 6.007986450195312500e+02 6.464547119140625000e+02 6.585848388671875000e+02
3.546521911621093750e+02 3.546912231445312500e+02 3.672964172363281250e+02 4.412430114746093750e+02 3.955299377441406250e+02 3.485917053222656250e+02 3.469722595214843750e+02 3.348995666503906250e+02 3.161969909667968750e+02 3.666456298828125000e+02 3.841756591796875000e+02 4.135498046875000000e+02 4.619379272460937500e+02 5.363513183593750000e+02 6.286828002929687500e+02 8.018033447265625000e+02 7.758287353515625000e+02 7.029390869140625000e+02 5.796468505859375000e+02 6.175117797851562500e+02 5.569951171875000000e+02 5.493836669921875000e+02 5.323671875000000000e+02 5.380171508789062500e+02 5.351689453125000000e+02 4.871701660156250000e+02 4.063415222167968750e+02 3.354685974121093750e+02 3.306880187988281250e+02 3.829554443359375000e+02 3.595251159667968750e+02 3.448215026855468750e+02 3.729174499511718750e+02 3.963242492675781250e+02 4.275133666992187500e+02 3.306984863281250000e+02 3.959245605468750000e+02 4.619603881835937500e+02 5.387941894531250000e+02 5.513055419921875000e+02 5.407551269531250000e+02 5.443909912109375000e+02 5.783706665039062500e+02 6.155301513671875000e+02 6.857816162109375000e+02 6.977311401367187500e+02 6.316603393554687500e+02 4.834394226074218750e+02 5.567808227539062500e+02 5.641290283203125000e+02 4.279843750000000000e+02 4.431830139160156250e+02 4.773472290039062500e+02 5.498245849609375000e+02 5.701857299804687500e+02 6.220891113281250000e+02 6.961828613281250000e+02
3.508460998535156250e+02 3.356928405761718750e+02 3.584035644531250000e+02 3.982344360351562500e+02 3.758117980957031250e+02 3.301976318359375000e+02 3.143384704589843750e+02 3.228202209472656250e+02 3.566019897460937500e+02 4.222382507324218750e+02 4.229575500488281250e+02 4.432324218750000000e+02 4.831417846679687500e+02 5.321713867187500000e+02 6.086383056640625000e+02 8.054613037109375000e+02 7.571655273437500000e+02 6.849743041992187500e+02 5.686638793945312500e+02 5.708839111328125000e+02 5.435713500976562500e+02 5.408709106445312500e+02 5.108482666015625000e+02 5.210946655273437500e+02 5.313021240234375000e+02 4.920392761230468750e+02 3.880946655273437500e+02 3.163372192382812500e+02 3.671412353515625000e+02 4.644108886718750000e+02 4.604274597167968750e+02 4.364930419921875000e+02 4.340803222656250000e+02 4.613103637695312500e+02 4.789554748535156250e+02 3.629205932617187500e+02 3.816408081054687500e+02 4.626958618164062500e+02 5.104634094238281250e+02 5.191315917968750000e+02 5.135467529296875000e+02 5.518295898437500000e+02 5.739393310546875000e+02 5.845367431640625000e+02 6.605559082031250000e+02 6.880141601562500000e+02 6.935755004882812500e+02 5.363498535156250000e+02 5.807745971679687500e+02 6.215714721679687500e+02 5.386294555664062500e+02 5.215440063476562500e+02 4.926384582519531250e+02 5.205968017578125000e+02 5.717529296875000000e+02 6.021798706054687500e+02 7.081237182617187500e+02
3.505796813964843750e+02 3.303500976562500000e+02 3.356553649902343750e+02 3.824361267089843750e+02 3.311607055664062500e+02 3.135000000000000000e+02 3.354191589355468750e+02 3.666613159179687500e+02 4.011172485351562500e+02 4.335780334472656250e+02 4.296596374511718750e+02 4.299835815429687500e+02 4.579370727539062500e+02 5.162433471679687500e+02 5.911253662109375000e+02 7.908155517578125000e+02 7.870393676757812500e+02 6.996379394531250000e+02 5.904180297851562500e+02 5.354084472656250000e+02 5.263536987304687500e+02 5.317364501953125000e+02 4.914542541503906250e+02 5.109229125976562500e+02 5.250368652343750000e+02 4.898878479003906250e+02 4.045119628906250000e+02 3.309393005371093750e+02 3.430046386718750000e+02 5.019127502441406250e+02 5.184009399414062500e+02 4.761643371582031250e+02 4.360555725097656250e+02 4.955285644531250000e+02 5.246804199218750000e+02 4.089533691406250000e+02 3.582033691406250000e+02 4.461026306152343750e+02 4.340448303222656250e+02 4.714547729492187500e+02 5.381305541992187500e+02 6.097249755859375000e+02 5.917697753906250000e+02 5.908194580078125000e+02 6.307896728515625000e+02 6.819682617187500000e+02 7.121173706054687500e+02 6.302099609375000000e+02 6.606583251953125000e+02 6.888951416015625000e+02 6.612711181640625000e+02 6.417267456054687500e+02 6.026799316406250000e+02 6.343473510742187500e+02 6.818867797851562500e+02 6.592868652343750000e+02 6.998518676757812500e+02
3.426248779296875000e+02 3.418523864746093750e+02 3.243417053222656250e+02 3.642203369140625000e+02 3.178836059570312500e+02 3.135000000000000000e+02 3.143421630859375000e+02 3.279396667480468750e+02 3.615305480957031250e+02 4.032118530273437500e+02 4.064698181152343750e+02 3.982400207519531250e+02 4.346932373046875000e+02 4.741715087890625000e+02 5.638107910156250000e+02 7.375655517578125000e+02 8.093402709960937500e+02 7.583680419921875000e+02 6.475651245117187500e+02 5.882523803710937500e+02 4.690640563964843750e+02 5.070834655761718750e+02 4.701784667968750000e+02 4.793496398925781250e+02 4.863825378417968750e+02 4.673922424316406250e+02 3.493286132812500000e+02 3.247613525390625000e+02 4.016227722167968750e+02 5.197869262695312500e+02 5.500386352539062500e+02 5.290357055664062500e+02 4.565942993164062500e+02 4.982846679687500000e+02 5.467209472656250000e+02 4.464638366699218750e+02 4.099335937500000000e+02 3.909106445312500000e+02 4.358121337890625000e+02 5.059037170410156250e+02 5.892620849609375000e+02 6.616442871093750000e+02 6.837059326171875000e+02 6.751029052734375000e+02 6.587469482421875000e+02 6.655447998046875000e+02 7.183483886718750000e+02 7.360631103515625000e+02 7.359805297851562500e+02 7.356134033203125000e+02 7.193026123046875000e+02 7.083265380859375000e+02 6.900413818359375000e+02 7.233153076171875000e+02 7.364742431640625000e+02 7.223193969726562500e+02 6.955364990234375000e+02
3.334080810546875000e+02 3.358138427734375000e+02 3.286098632812500000e+02 3.405885620117187500e+02 3.161661376953125000e+02 3.139774780273437500e+02 3.203005981445312500e+02 3.897898559570312500e+02 3.810943908691406250e+02 3.853804931640625000e+02 4.000640258789062500e+02 4.014443969726562500e+02 4.681982421875000000e+02 5.011616210937500000e+02 5.291807861328125000e+02 6.946633300781250000e+02 7.351131591796875000e+02 7.673191528320312500e+02 7.033803710937500000e+02 6.319298095703125000e+02 4.546315612792968750e+02 4.308969421386718750e+02 4.253845825195312500e+02 4.135238647460937500e+02 4.443601379394531250e+02 4.635497436523437500e+02 3.909784851074218750e+02 3.200043029785156250e+02 3.592691955566406250e+02 4.985874023437500000e+02 5.553447265625000000e+02 5.970777587890625000e+02 5.010614624023437500e+02 5.356314697265625000e+02 5.584313964843750000e+02 5.128607177734375000e+02 4.464770507812500000e+02 3.981148681640625000e+02 4.959790039062500000e+02 5.533978271484375000e+02 5.585147705078125000e+02 6.369165649414062500e+02 6.808880615234375000e+02 7.158705444335937500e+02 7.243001708984375000e+02 7.201949462890625000e+02 7.267475585937500000e+02 7.404188232421875000e+02 7.209384155273437500e+02 7.140166015625000000e+02 7.116615600585937500e+02 7.073957519531250000e+02 6.983571166992187500e+02 7.154051513671875000e+02 7.285266723632812500e+02 7.249907836914062500e+02 6.891559448242187500e+02
3.156108398437500000e+02 3.192183837890625000e+02 3.224931640625000000e+02 3.143275146484375000e+02 3.136560668945312500e+02 3.141700439453125000e+02 3.468571777343750000e+02 4.353991394042968750e+02 4.257745666503906250e+02 4.128737182617187500e+02 4.574719848632812500e+02 4.529744873046875000e+02 4.485589294433593750e+02 4.806873474121093750e+02 5.376711425781250000e+02 5.995858154296875000e+02 6.195857543945312500e+02 6.883058471679687500e+02 7.556714477539062500e+02 7.064546508789062500e+02 5.195928955078125000e+02 4.732891845703125000e+02 4.224311828613281250e+02 3.876508789062500000e+02 3.995843200683593750e+02 4.102230224609375000e+02 3.961088867187500000e+02 3.260642089843750000e+02 3.388326416015625000e+02 4.641459350585937500e+02 5.188265380859375000e+02 5.959266967773437500e+02 5.390848388671875000e+02 5.613096923828125000e+02 5.880040283203125000e+02 5.547817993164062500e+02 4.950445251464843750e+02 4.393990478515625000e+02 4.347370605468750000e+02 4.858646240234375000e+02 5.233364868164062500e+02 6.087250976562500000e+02 6.576816406250000000e+02 6.818242187500000000e+02 7.134224853515625000e+02 7.139981689453125000e+02 7.452937622070312500e+02 7.318768310546875000e+02 7.130161743164062500e+02 7.053685302734375000e+02 7.093653564453125000e+02 6.985230712890625000e+02 6.710655517578125000e+02 7.091107177734375000e+02 7.143969726562500000e+02 7.187714843750000000e+02 6.937937622070312500e+02
3.135000000000000000e+02 3.135000000000000000e+02 3.157936096191406250e+02 3.135000000000000000e+02 3.161343383789062500e+02 3.473247985839843750e+02 4.364046325683593750e+02 4.804596252441406250e+02 4.758357238769531250e+02 4.327827758789062500e+02 5.047485046386718750e+02 5.146583251953125000e+02 5.315338745117187500e+02 5.446726074218750000e+02 5.364264526367187500e+02 5.491643066406250000e+02 5.466079101562500000e+02 6.221399536132812500e+02 6.673257446289062500e+02 7.204663696289062500e+02 5.805794677734375000e+02 5.053861694335937500e+02 4.370081787109375000e+02 3.907973327636718750e+02 3.782116088867187500e+02 3.744727172851562500e+02 3.662330017089843750e+02 3.140000000000000000e+02 3.761923217773437500e+02 4.942888488769531250e+02 5.675864257812500000e+02 6.118850097656250000e+02 5.903792724609375000e+02 6.150796508789062500e+02 6.226979980468750000e+02 5.669321289062500000e+02 5.104440612792968750e+02 4.673079223632812500e+02 4.178772888183593750e+02 4.563164062500000000e+02 5.054902038574218750e+02 5.944404907226562500e+02 6.328395385742187500e+02 6.696717529296875000e+02 6.924020385742187500e+02 7.126075439453125000e+02 7.358277587890625000e+02 7.218992919921875000e+02 6.946915893554687500e+02 7.030192260742187500e+02 6.980412597656250000e+02 6.891176757812500000e+02 6.499595336914062500e+02 6.935724487304687500e+02 7.018071289062500000e+02 7.096920776367187500e+02 6.965458984375000000e+02
3.164912719726562500e+02 3.214203796386718750e+02 3.135000000000000000e+02 3.137265014648437500e+02 3.260728454589843750e+02 3.699154052734375000e+02 3.987618408203125000e+02 4.415578308105468750e+02 4.766946716308593750e+02 4.924583129882812500e+02 5.403746337890625000e+02 5.216077880859375000e+02 5.182446289062500000e+02 5.517453613281250000e+02 5.309711303710937500e+02 5.015674743652343750e+02 4.899032287597656250e+02 5.556794433593750000e+02 6.094323730468750000e+02 6.602365722656250000e+02 6.035734863281250000e+02 5.450798950195312500e+02 4.746840515136718750e+02 4.669285583496093750e+02 4.331394653320312500e+02 4.263321533203125000e+02 3.887712097167968750e+02 3.145204772949218750e+02 3.889025878906250000e+02 5.401050415039062500e+02 5.873208618164062500e+02 6.428185424804687500e+02 6.586405029296875000e+02 6.525931396484375000e+02 6.101032714843750000e+02 5.165244140625000000e+02 4.777921752929687500e+02 4.476806335449218750e+02 4.208789672851562500e+02 4.668107604980468750e+02 5.068681640625000000e+02 6.028703002929687500e+02 6.231761474609375000e+02 6.491588134765625000e+02 6.932523193359375000e+02 7.140578002929687500e+02 7.104034423828125000e+02 7.052711181640625000e+02 6.765413208007812500e+02 6.994600219726562500e+02 6.892138671875000000e+02 6.750064697265625000e+02 6.280230712890625000e+02 6.469847412109375000e+02 6.857033081054687500e+02 6.929464721679687500e+02 6.857701416015625000e+02
3.175739440917968750e+02 3.399682006835937500e+02 3.358513793945312500e+02 3.491282653808593750e+02 3.519382934570312500e+02 3.673973083496093750e+02 4.051149902343750000e+02 4.205144042968750000e+02 4.526509704589843750e+02 5.674832763671875000e+02 5.593158569335937500e+02 5.138824462890625000e+02 5.174406738281250000e+02 5.386069335937500000e+02 5.124901123046875000e+02 4.722705688476562500e+02 4.459160156250000000e+02 4.908234863281250000e+02 5.530264892578125000e+02 6.033238525390625000e+02 6.808620605468750000e+02 5.965348510742187500e+02 5.650290527343750000e+02 5.477429199218750000e+02 4.699784545898437500e+02 4.221523742675781250e+02 3.311842346191406250e+02 3.347062072753906250e+02 4.188159790039062500e+02 5.802091064453125000e+02 6.197496948242187500e+02 6.428950195312500000e+02 7.035824584960937500e+02 6.657877807617187500e+02 6.218524169921875000e+02 5.522434692382812500e+02 4.899466247558593750e+02 4.728272399902343750e+02 4.535583801269531250e+02 5.014693603515625000e+02 5.145933227539062500e+02 5.759748535156250000e+02 6.263773193359375000e+02 6.647229614257812500e+02 6.915828857421875000e+02 6.876852416992187500e+02 6.868184204101562500e+02 6.945021972656250000e+02 6.680340576171875000e+02 6.673452758789062500e+02 6.770078125000000000e+02 6.843358764648437500e+02 6.547217407226562500e+02 6.057949829101562500e+02 6.498594970703125000e+02 6.843367309570312500e+02 6.591062011718750000e+02
3.656218872070312500e+02 3.662105712890625000e+02 3.539356079101562500e+02 4.140668334960937500e+02 3.884836425781250000e+02 3.938915405273437500e+02 4.638326416015625000e+02 5.099641723632812500e+02 5.067703857421875000e+02 5.818069458007812500e+02 5.729346923828125000e+02 5.061113281250000000e+02 5.407087402343750000e+02 5.531505126953125000e+02 5.101657714843750000e+02 4.073585815429687500e+02 4.513919067382812500e+02 5.169116210937500000e+02 5.060955200195312500e+02 5.594952392578125000e+02 6.935109252929687500e+02 6.761113281250000000e+02 6.458302001953125000e+02 5.268783569335937500e+02 4.568423156738281250e+02 4.141567077636718750e+02 3.207161254882812500e+02 3.724555969238281250e+02 4.313323974609375000e+02 5.312470703125000000e+02 5.642975463867187500e+02 6.031867675781250000e+02 7.028818359375000000e+02 6.819783935546875000e+02 6.655045166015625000e+02 6.071976318359375000e+02 5.673565673828125000e+02 5.300607299804687500e+02 4.493119506835937500e+02 5.123349609375000000e+02 5.769111938476562500e+02 6.037743530273437500e+02 6.595460205078125000e+02 6.759606933593750000e+02 6.817166748046875000e+02 6.852128906250000000e+02 6.770219116210937500e+02 6.813153076171875000e+02 6.718840332031250000e+02 6.411645507812500000e+02 6.711631469726562500e+02 6.865367431640625000e+02 6.747244873046875000e+02 5.862340087890625000e+02 5.903336181640625000e+02 6.500881347656250000e+02 6.430281982421875000e+02
4.167013854980468750e+02 4.260757141113281250e+02 3.968724975585937500e+02 3.811820983886718750e+02 3.990234069824218750e+02 4.400863037109375000e+02 4.871152343750000000e+02 5.503222656250000000e+02 6.090267333984375000e+02 5.842291259765625000e+02 5.527108154296875000e+02 5.021135253906250000e+02 5.133481445312500000e+02 5.532478027343750000e+02 5.449041748046875000e+02 4.224418945312500000e+02 4.203137207031250000e+02 4.806436462402343750e+02 4.784736328125000000e+02 5.337012329101562500e+02 5.976505126953125000e+02 6.139384155273437500e+02 5.815443115234375000e+02 5.140257568359375000e+02 4.400311889648437500e+02 3.748793334960937500e+02 3.603151245117187500e+02 4.369432373046875000e+02 4.882038269042968750e+02 5.294850463867187500e+02 5.901757812500000000e+02 6.510891113281250000e+02 7.111533203125000000e+02 7.041937255859375000e+02 6.997881469726562500e+02 6.613812255859375000e+02 6.088028564453125000e+02 5.530817871093750000e+02 4.600911865234375000e+02 4.830455627441406250e+02 5.081876831054687500e+02 5.838972778320312500e+02 6.443183593750000000e+02 6.705919189453125000e+02 6.636912841796875000e+02 6.675253295898437500e+02 6.696137084960937500e+02 6.624881591796875000e+02 6.740689086914062500e+02 6.303190917968750000e+02 6.670170288085937500e+02 6.765596923828125000e+02 6.696478271484375000e+02 6.236817626953125000e+02 5.709327392578125000e+02 5.822355346679687500e+02 6.382788696289062500e+02
3.881558837890625000e+02 4.272915649414062500e+02 4.444578552246093750e+02 4.060915832519531250e+02 4.151634826660156250e+02 4.587277221679687500e+02 5.584805297851562500e+02 6.035450439453125000e+02 5.683449707031250000e+02 6.116926269531250000e+02 5.799117431640625000e+02 5.255607910156250000e+02 4.766303710937500000e+02 5.295662231445312500e+02 5.627282714843750000e+02 4.462138977050781250e+02 3.893333129882812500e+02 4.212575988769531250e+02 5.264498291015625000e+02 5.514066162109375000e+02 5.098726501464843750e+02 5.268605957031250000e+02 5.043015441894531250e+02 5.452787475585937500e+02 4.912644042968750000e+02 3.915526733398437500e+02 3.493750000000000000e+02 4.062131958007812500e+02 4.548371887207031250e+02 5.952949829101562500e+02 6.392916259765625000e+02 6.570357666015625000e+02 6.979782714843750000e+02 7.043778076171875000e+02 6.837167358398437500e+02 6.571812744140625000e+02 5.954738159179687500e+02 5.316729736328125000e+02 4.897677001953125000e+02 5.398422241210937500e+02 5.661445312500000000e+02 6.259851074218750000e+02 6.749089965820312500e+02 6.748956298828125000e+02 6.565034179687500000e+02 6.323518066406250000e+02 6.477816162109375000e+02 6.372539062500000000e+02 6.277522583007812500e+02 6.087178955078125000e+02 6.441135253906250000e+02 6.542883300781250000e+02 6.634487304687500000e+02 6.038389892578125000e+02 5.452017822265625000e+02 5.651087646484375000e+02 6.273229980468750000e+02
3.756122436523437500e+02 3.928007507324218750e+02 4.394355773925781250e+02 4.870335998535156250e+02 5.011880798339843750e+02 5.286012573242187500e+02 6.355046386718750000e+02 6.499709472656250000e+02 5.824302978515625000e+02 5.441134643554687500e+02 5.126727905273437500e+02 4.957627868652343750e+02 4.466834716796875000e+02 4.985082702636718750e+02 5.580411376953125000e+02 4.693520202636718750e+02 3.872481384277343750e+02 3.812383422851562500e+02 4.896413574218750000e+02 5.338491821289062500e+02 4.491771240234375000e+02 4.545974121093750000e+02 4.416001892089843750e+02 4.776449584960937500e+02 4.841071472167968750e+02 4.139532470703125000e+02 3.369694824218750000e+02 3.926236877441406250e+02 4.493057250976562500e+02 5.852343750000000000e+02 6.390671386718750000e+02 6.451182861328125000e+02 6.803920288085937500e+02 6.814555664062500000e+02 6.793276367187500000e+02 6.262836914062500000e+02 5.854685668945312500e+02 5.415304565429687500e+02 5.057222900390625000e+02 5.724057006835937500e+02 6.063737792968750000e+02 6.702780761718750000e+02 6.808438720703125000e+02 6.783533325195312500e+02 6.483632812500000000e+02 6.210326538085937500e+02 5.899826660156250000e+02 5.955985717773437500e+02 5.719282226562500000e+02 6.067633056640625000e+02 6.155260620117187500e+02 6.235756835937500000e+02 6.474010009765625000e+02 6.428653564453125000e+02 5.585820922851562500e+02 5.166822509765625000e+02 5.999752197265625000e+02
4.292239379882812500e+02 4.713325195312500000e+02 4.883180541992187500e+02 5.233231811523437500e+02 5.279097900390625000e+02 5.539419555664062500e+02 5.985260009765625000e+02 6.166813964843750000e+02 6.301026611328125000e+02 5.214619750976562500e+02 4.842835388183593750e+02 4.557537841796875000e+02 4.246134643554687500e+02 4.825199279785156250e+02 5.495509643554687500e+02 4.911319274902343750e+02 4.226672058105468750e+02 3.495834960937500000e+02 4.792480468750000000e+02 5.191520996093750000e+02 4.444907836914062500e+02 4.026188354492187500e+02 3.854208679199218750e+02 4.405062561035156250e+02 4.470474243164062500e+02 3.996203002929687500e+02 3.345691833496093750e+02 4.053786315917968750e+02 4.656619873046875000e+02 6.054640502929687500e+02 6.280661621093750000e+02 6.343643188476562500e+02 6.428138427734375000e+02 6.631450805664062500e+02 6.497758789062500000e+02 6.447695312500000000e+02 6.144063720703125000e+02 5.731411132812500000e+02 5.435972900390625000e+02 5.426079101562500000e+02 5.981975097656250000e+02 6.792940063476562500e+02 6.825321044921875000e+02 6.865007324218750000e+02 6.622599487304687500e+02 6.235183105468750000e+02 6.068993530273437500e+02 5.700509643554687500e+02 5.429149780273437500e+02 5.779400634765625000e+02 5.985259399414062500e+02 5.866838989257812500e+02 6.233087158203125000e+02 6.367355957031250000e+02 6.070338134765625000e+02 5.238735351562500000e+02 5.190913696289062500e+02
4.745475463867187500e+02 4.806383056640625000e+02 4.590437622070312500e+02 4.577014770507812500e+02 4.967073974609375000e+02 4.827879943847656250e+02 5.181509399414062500e+02 5.508319702148437500e+02 5.756288452148437500e+02 5.874567871093750000e+02 5.227700195312500000e+02 4.928497619628906250e+02 3.931900634765625000e+02 4.644360656738281250e+02 5.433536376953125000e+02 4.635607299804687500e+02 3.860725402832031250e+02 3.482474060058593750e+02 4.833313598632812500e+02 5.195726318359375000e+02 4.639442138671875000e+02 4.324727783203125000e+02 3.955606079101562500e+02 3.612227478027343750e+02 3.609028930664062500e+02 3.333909912109375000e+02 3.482655334472656250e+02 4.402031860351562500e+02 5.042656555175781250e+02 6.214354248046875000e+02 5.991971435546875000e+02 6.195686035156250000e+02 6.034760742187500000e+02 6.423585205078125000e+02 6.037886352539062500e+02 6.405537109375000000e+02 6.360797119140625000e+02 6.312154541015625000e+02 6.026693725585937500e+02 5.888225097656250000e+02 6.184265136718750000e+02 6.722022705078125000e+02 6.792635498046875000e+02 6.762631835937500000e+02 6.659140625000000000e+02 6.614324340820312500e+02 6.621180419921875000e+02 6.021606445312500000e+02 5.507366943359375000e+02 5.340050048828125000e+02 5.744957885742187500e+02 5.603303222656250000e+02 5.759547729492187500e+02 6.121967163085937500e+02 6.146820678710937500e+02 5.686754150390625000e+02 4.803477172851562500e+02
5.143069458007812500e+02 4.754677124023437500e+02 4.390995788574218750e+02 4.263939819335937500e+02 4.808349609375000000e+02 4.368162231445312500e+02 4.601745605468750000e+02 4.938130187988281250e+02 4.918362731933593750e+02 5.824185791015625000e+02 5.599252929687500000e+02 4.963763427734375000e+02 3.707286987304687500e+02 4.396406860351562500e+02 5.144249267578125000e+02 4.846180419921875000e+02 4.066379089355468750e+02 3.329554443359375000e+02 4.264954528808593750e+02 4.709910278320312500e+02 4.183335571289062500e+02 4.050683593750000000e+02 3.775092163085937500e+02 3.137244262695312500e+02 3.326424865722656250e+02 3.611607055664062500e+02 3.737086791992187500e+02 4.442613525390625000e+02 5.127533569335937500e+02 5.852022094726562500e+02 5.695510253906250000e+02 5.998533935546875000e+02 5.567766723632812500e+02 5.877319335937500000e+02 5.593448486328125000e+02 5.992442626953125000e+02 6.542611694335937500e+02 6.632897338867187500e+02 6.440956420898437500e+02 6.529434814453125000e+02 6.574464111328125000e+02 6.643342285156250000e+02 6.628859252929687500e+02 6.662276000976562500e+02 6.477266235351562500e+02 6.682335815429687500e+02 6.687821044921875000e+02 6.007074584960937500e+02 5.593500366210937500e+02 5.242768554687500000e+02 5.243840332031250000e+02 5.351244506835937500e+02 5.195911254882812500e+02 5.622542114257812500e+02 6.130560913085937500e+02 5.860499267578125000e+02 5.004062500000000000e+02
5.243503417968750000e+02 4.928442687988281250e+02 4.647232055664062500e+02 3.970936889648437500e+02 4.097204589843750000e+02 4.250443725585937500e+02 4.134741821289062500e+02 4.271271972656250000e+02 4.350075683593750000e+02 5.200147705078125000e+02 5.215806274414062500e+02 4.636531677246093750e+02 3.828700866699218750e+02 4.654294433593750000e+02 5.227133789062500000e+02 4.755765075683593750e+02 4.186917114257812500e+02 3.675493469238281250e+02 3.622692871093750000e+02 4.214534912109375000e+02 3.716677246093750000e+02 3.627126159667968750e+02 3.380587158203125000e+02 3.487203369140625000e+02 3.778498535156250000e+02 4.635045776367187500e+02 4.512119445800781250e+02 5.073759155273437500e+02 5.862801513671875000e+02 5.908956909179687500e+02 5.498973388671875000e+02 5.765322875976562500e+02 5.271195068359375000e+02 5.380806884765625000e+02 5.400440673828125000e+02 5.984822998046875000e+02 6.466151123046875000e+02 6.628306884765625000e+02 6.174556884765625000e+02 6.274488525390625000e+02 6.197437744140625000e+02 6.400404052734375000e+02 6.333049316406250000e+02 6.496286621093750000e+02 6.458015747070312500e+02 6.614351806640625000e+02 6.610158691406250000e+02 6.005165405273437500e+02 5.785606079101562500e+02 5.611716918945312500e+02 5.309982299804687500e+02 4.961068115234375000e+02 4.775243225097656250e+02 5.310195312500000000e+02 5.835322265625000000e+02 5.830561523437500000e+02 4.350321044921875000e+02
5.150920410156250000e+02 5.046934814453125000e+02 4.655408325195312500e+02 4.212498474121093750e+02 4.147771301269531250e+02 3.959219055175781250e+02 3.908377685546875000e+02 3.854088134765625000e+02 4.201715087890625000e+02 5.180601196289062500e+02 4.958938903808593750e+02 4.422006225585937500e+02 3.600048828125000000e+02 4.311963806152343750e+02 4.840310363769531250e+02 5.182376098632812500e+02 4.659232788085937500e+02 4.080758972167968750e+02 3.188755493164062500e+02 3.190986328125000000e+02 3.150372924804687500e+02 3.170800476074218750e+02 3.147022399902343750e+02 3.832808227539062500e+02 4.419842529296875000e+02 4.917665405273437500e+02 5.351511230468750000e+02 5.436373901367187500e+02 5.927332153320312500e+02 5.819075927734375000e+02 5.162504272460937500e+02 5.282742919921875000e+02 5.024045410156250000e+02 5.309494018554687500e+02 5.520882568359375000e+02 6.088425292968750000e+02 6.476903076171875000e+02 6.327652587890625000e+02 5.789412841796875000e+02 5.760740356445312500e+02 5.747758178710937500e+02 6.104327392578125000e+02 6.029287719726562500e+02 6.215870361328125000e+02 6.387598876953125000e+02 6.430092163085937500e+02 6.128973388671875000e+02 5.926029052734375000e+02 6.190171508789062500e+02 6.277608642578125000e+02 5.843161010742187500e+02 5.508955078125000000e+02 5.558633422851562500e+02 4.708670043945312500e+02 5.067116088867187500e+02 5.364063110351562500e+02 4.368529357910156250e+02
4.721550903320312500e+02 4.831879882812500000e+02 4.674197082519531250e+02 4.178972167968750000e+02 4.283019409179687500e+02 4.577269592285156250e+02 3.534576721191406250e+02 3.823642272949218750e+02 4.156656494140625000e+02 4.946995239257812500e+02 4.933030395507812500e+02 4.438959655761718750e+02 3.289255371093750000e+02 3.909305419921875000e+02 4.465238647460937500e+02 4.999052124023437500e+02 4.461582641601562500e+02 4.242393493652343750e+02 3.135000000000000000e+02 3.190754394531250000e+02 3.564704284667968750e+02 3.729101562500000000e+02 3.484077758789062500e+02 4.759568786621093750e+02 5.028376464843750000e+02 5.377162475585937500e+02 5.565578613281250000e+02 5.336939086914062500e+02 5.521747436523437500e+02 5.380649414062500000e+02 4.868275756835937500e+02 4.904912109375000000e+02 5.275532226562500000e+02 5.669382324218750000e+02 5.852709960937500000e+02 6.294107666015625000e+02 6.149772949218750000e+02 6.060360717773437500e+02 5.486928710937500000e+02 5.508425292968750000e+02 5.585332641601562500e+02 5.825748901367187500e+02 5.758645019531250000e+02 5.964716186523437500e+02 6.298524169921875000e+02 6.058809814453125000e+02 5.557427978515625000e+02 5.292380981445312500e+02 5.643675537109375000e+02 5.991867065429687500e+02 5.801268920898437500e+02 5.883875732421875000e+02 5.736900634765625000e+02 5.046558227539062500e+02 4.562244262695312500e+02 4.652986755371093750e+02 4.171744384765625000e+02
4.590848388671875000e+02 4.400711669921875000e+02 4.336213684082031250e+02 4.022369995117187500e+02 4.139553833007812500e+02 4.469331970214843750e+02 4.234212341308593750e+02 3.573296203613281250e+02 3.557717285156250000e+02 4.263839721679687500e+02 4.430933837890625000e+02 4.283499145507812500e+02 3.281537475585937500e+02 3.974453430175781250e+02 4.497041015625000000e+02 4.368729858398437500e+02 3.885395812988281250e+02 3.859488830566406250e+02 3.135000000000000000e+02 3.194858703613281250e+02 3.833395690917968750e+02 4.016753845214843750e+02 4.090947875976562500e+02 4.727581176757812500e+02 5.224387207031250000e+02 5.166740112304687500e+02 4.937340698242187500e+02 5.176430664062500000e+02 4.793881225585937500e+02 4.882940063476562500e+02 4.519731140136718750e+02 4.558557434082031250e+02 4.982666015625000000e+02 5.413942260742187500e+02 5.514455566406250000e+02 6.095616455078125000e+02 5.988696899414062500e+02 5.689646606445312500e+02 5.421893920898437500e+02 5.418026733398437500e+02 5.516815185546875000e+02 5.753681030273437500e+02 6.047285156250000000e+02 6.119307861328125000e+02 5.779409179687500000e+02 5.895484619140625000e+02 5.790135498046875000e+02 4.911968994140625000e+02 5.181872558593750000e+02 5.548977661132812500e+02 5.740866699218750000e+02 5.805611572265625000e+02 5.652732543945312500e+02 5.525882568359375000e+02 5.031546020507812500e+02 4.374097900390625000e+02 4.130437011718750000e+02
4.986942443847656250e+02 4.798361206054687500e+02 4.477012023925781250e+02 4.167228393554687500e+02 3.979443969726562500e+02 3.940446472167968750e+02 4.457102661132812500e+02 4.356318969726562500e+02 3.570629882812500000e+02 3.906654357910156250e+02 4.481237792968750000e+02 4.137317199707031250e+02 3.714778442382812500e+02 4.314545288085937500e+02 3.988999938964843750e+02 3.349273681640625000e+02 3.426124267578125000e+02 3.550038452148437500e+02 3.135000000000000000e+02 3.146392211914062500e+02 3.945575561523437500e+02 4.100876464843750000e+02 4.190590820312500000e+02 4.516849365234375000e+02 4.908048706054687500e+02 4.518631591796875000e+02 4.626640930175781250e+02 4.515954589843750000e+02 4.272099609375000000e+02 4.400881652832031250e+02 4.211397399902343750e+02 4.351571655273437500e+02 4.586196899414062500e+02 4.853929138183593750e+02 5.131757812500000000e+02 5.638475341796875000e+02 6.145379028320312500e+02 6.019868774414062500e+02 5.225557250976562500e+02 5.609268798828125000e+02 5.722985839843750000e+02 5.859455566406250000e+02 5.685767822265625000e+02 5.759510498046875000e+02 5.244284057617187500e+02 5.469079589843750000e+02 5.675104370117187500e+02 4.689146728515625000e+02 5.007658691406250000e+02 5.678576049804687500e+02 5.379534912109375000e+02 5.501545410156250000e+02 5.285512084960937500e+02 5.359622192382812500e+02 4.931180419921875000e+02 4.606094970703125000e+02 4.429180297851562500e+02
4.223695068359375000e+02 4.426700744628906250e+02 4.258908691406250000e+02 4.395110473632812500e+02 4.223734436035156250e+02 4.051757507324218750e+02 4.101872863769531250e+02 4.499082641601562500e+02 4.205297241210937500e+02 3.574678955078125000e+02 4.342250061035156250e+02 3.975473632812500000e+02 3.866005859375000000e+02 4.293397521972656250e+02 3.514194030761718750e+02 3.169513549804687500e+02 3.151903381347656250e+02 3.178794555664062500e+02 3.135000000000000000e+02 3.185042114257812500e+02 3.879984436035156250e+02 3.719435424804687500e+02 3.988671875000000000e+02 4.133002929687500000e+02 4.097536010742187500e+02 3.850638427734375000e+02 3.950432128906250000e+02 3.965103149414062500e+02 3.999940185546875000e+02 4.211670837402343750e+02 4.609318237304687500e+02 4.955448608398437500e+02 4.849245605468750000e+02 4.860285949707031250e+02 4.986062927246093750e+02 5.834697265625000000e+02 6.105911865234375000e+02 5.763742675781250000e+02 5.126589965820312500e+02 5.484918212890625000e+02 5.557469482421875000e+02 5.318501586914062500e+02 5.487152099609375000e+02 5.424681396484375000e+02 4.831038513183593750e+02 5.299124145507812500e+02 5.592962646484375000e+02 4.517487792968750000e+02 4.979491577148437500e+02 5.278341064453125000e+02 4.764644165039062500e+02 5.073948059082031250e+02 4.953351745605468750e+02 5.003540039062500000e+02 4.226760253906250000e+02 4.354251403808593750e+02 4.827097778320312500e+02
3.741772766113281250e+02 4.116609191894531250e+02 3.844902343750000000e+02 4.009165649414062500e+02 3.932255859375000000e+02 3.956565246582031250e+02 4.149471435546875000e+02 4.582530822753906250e+02 4.420319824218750000e+02 3.257285461425781250e+02 3.984097290039062500e+02 4.086288757324218750e+02 3.645463562011718750e+02 3.984256591796875000e+02 3.242416381835937500e+02 3.509510498046875000e+02 3.716476440429687500e+02 3.296748352050781250e+02 3.135000000000000000e+02 3.212191162109375000e+02 3.243631896972656250e+02 3.268191528320312500e+02 3.416397094726562500e+02 3.516305541992187500e+02 3.912352294921875000e+02 4.005065307617187500e+02 4.812449645996093750e+02 5.123560791015625000e+02 4.783712158203125000e+02 4.762152709960937500e+02 4.669450073242187500e+02 5.107335815429687500e+02 5.461832275390625000e+02 5.401146240234375000e+02 5.595930175781250000e+02 5.947337646484375000e+02 5.746728515625000000e+02 5.700958251953125000e+02 5.097872924804687500e+02 5.256370849609375000e+02 5.451668090820312500e+02 4.861542968750000000e+02 5.292786865234375000e+02 5.074377746582031250e+02 4.674799499511718750e+02 5.285226440429687500e+02 5.498986816406250000e+02 4.350288085937500000e+02 4.885106506347656250e+02 4.969508972167968750e+02 4.357789611816406250e+02 4.427313232421875000e+02 4.755901184082031250e+02 4.577827758789062500e+02 4.190321655273437500e+02 4.598566894531250000e+02 5.230273437500000000e+02
3.739797058105468750e+02 4.024272766113281250e+02 3.873510742187500000e+02 3.380180969238281250e+02 3.458612976074218750e+02 3.563255920410156250e+02 4.180480346679687500e+02 4.490021972656250000e+02 4.025248413085937500e+02 3.303942260742187500e+02 4.004304199218750000e+02 3.729487304687500000e+02 3.433567810058593750e+02 3.489501037597656250e+02 3.138131713867187500e+02 3.915670166015625000e+02 4.250309448242187500e+02 3.834461059570312500e+02 3.326670532226562500e+02 3.563284912109375000e+02 3.588732910156250000e+02 3.671268615722656250e+02 3.478582763671875000e+02 4.216409912109375000e+02 4.686282958984375000e+02 4.803121032714843750e+02 5.404873046875000000e+02 5.662243652343750000e+02 5.532784423828125000e+02 5.195368041992187500e+02 5.156765136718750000e+02 5.597584838867187500e+02 5.770869140625000000e+02 5.602086181640625000e+02 5.500616455078125000e+02 5.434115600585937500e+02 5.110965270996093750e+02 5.342567138671875000e+02 5.073891906738281250e+02 5.443482666015625000e+02 5.420756225585937500e+02 4.705787963867187500e+02 5.028572998046875000e+02 5.230197143554687500e+02 4.537157897949218750e+02 4.879112548828125000e+02 5.049905700683593750e+02 4.281251831054687500e+02 4.323509826660156250e+02 4.462122192382812500e+02 3.935184936523437500e+02 3.910157775878906250e+02 4.000363159179687500e+02 4.049302673339843750e+02 4.337987060546875000e+02 4.823843078613281250e+02 5.532437133789062500e+02
3.363706054687500000e+02 3.436155395507812500e+02 3.447035827636718750e+02 3.327270507812500000e+02 3.802771606445312500e+02 3.779603576660156250e+02 4.380475463867187500e+02 4.567071838378906250e+02 3.972185058593750000e+02 3.241430664062500000e+02 3.529725646972656250e+02 3.195310668945312500e+02 3.136618957519531250e+02 3.140817871093750000e+02 3.139878234863281250e+02 4.332835693359375000e+02 4.803901672363281250e+02 4.420812377929687500e+02 3.284048767089843750e+02 3.951382751464843750e+02 3.817744445800781250e+02 4.257484741210937500e+02 3.922369995117187500e+02 3.903013000488281250e+02 4.027494812011718750e+02 4.231505126953125000e+02 5.307662353515625000e+02 5.771903076171875000e+02 5.691751098632812500e+02 5.739052734375000000e+02 5.691398315429687500e+02 5.811210327148437500e+02 5.656978759765625000e+02 5.332914428710937500e+02 5.022387695312500000e+02 4.908005981445312500e+02 4.837951660156250000e+02 4.731085205078125000e+02 5.293878173828125000e+02 5.614297485351562500e+02 5.235089111328125000e+02 4.370477294921875000e+02 4.524619445800781250e+02 4.889833984375000000e+02 4.036621704101562500e+02 4.170010070800781250e+02 4.250857238769531250e+02 3.960015869140625000e+02 3.884028930664062500e+02 3.865334167480468750e+02 4.327954101562500000e+02 4.003890991210937500e+02 3.988198547363281250e+02 4.405246582031250000e+02 4.749312744140625000e+02 4.904238891601562500e+02 6.123952636718750000e+02
3.203259887695312500e+02 3.222799072265625000e+02 3.142494201660156250e+02 3.476254272460937500e+02 3.586760864257812500e+02 3.460032043457031250e+02 3.756413879394531250e+02 4.070499877929687500e+02 3.546918334960937500e+02 3.135000000000000000e+02 3.135000000000000000e+02 3.135000000000000000e+02 3.565467529296875000e+02 3.552420959472656250e+02 3.534088134765625000e+02 4.320799560546875000e+02 5.010934448242187500e+02 4.949166259765625000e+02 3.554194335937500000e+02 3.498104858398437500e+02 4.135394287109375000e+02 4.601394653320312500e+02 4.167091064453125000e+02 4.891574401855468750e+02 4.951972656250000000e+02 4.723133544921875000e+02 4.670839538574218750e+02 5.162624511718750000e+02 5.482414550781250000e+02 5.719095458984375000e+02 5.771970825195312500e+02 5.708747558593750000e+02 5.559833984375000000e+02 5.049125366210937500e+02 4.617326660156250000e+02 4.775148925781250000e+02 4.563476562500000000e+02 4.252686157226562500e+02 5.298377685546875000e+02 5.067934875488281250e+02 5.043558349609375000e+02 3.881074218750000000e+02 3.794149780273437500e+02 4.083136596679687500e+02 4.271613464355468750e+02 4.253167419433593750e+02 3.919230651855468750e+02 3.888363037109375000e+02 4.051105957031250000e+02 4.442945556640625000e+02 4.650268249511718750e+02 4.244146423339843750e+02 4.013963928222656250e+02 4.736621704101562500e+02 4.937580261230468750e+02 5.219021606445312500e+02 6.071824951171875000e+02
3.135000000000000000e+02 3.135519409179687500e+02 3.135807189941406250e+02 3.150478515625000000e+02 3.153896179199218750e+02 3.157355346679687500e+02 3.324908142089843750e+02 3.458812866210937500e+02 3.163120422363281250e+02 3.250938110351562500e+02 3.178576354980468750e+02 3.215828857421875000e+02 3.803997802734375000e+02 4.244303588867187500e+02 4.598417968750000000e+02 4.687402343750000000e+02 5.114255676269531250e+02 5.080435180664062500e+02 3.747331542968750000e+02 3.475789184570312500e+02 4.486485595703125000e+02 4.641298522949218750e+02 4.684113159179687500e+02 4.556605834960937500e+02 5.136480102539062500e+02 5.302526245117187500e+02 5.395394287109375000e+02 5.514575195312500000e+02 5.652345581054687500e+02 5.637163085937500000e+02 5.663526611328125000e+02 5.563125610351562500e+02 5.626420288085937500e+02 5.130302124023437500e+02 4.513847656250000000e+02 4.607579956054687500e+02 4.459130859375000000e+02 4.012190246582031250e+02 4.829662475585937500e+02 4.194584655761718750e+02 4.361554260253906250e+02 3.893072204589843750e+02 4.215214233398437500e+02 4.207753601074218750e+02 5.214744873046875000e+02 5.252206420898437500e+02 4.576430664062500000e+02 4.608738708496093750e+02 4.549215393066406250e+02 4.820086975097656250e+02 5.019920043945312500e+02 4.561850891113281250e+02 4.437116394042968750e+02 4.294761962890625000e+02 4.601690368652343750e+02 4.941869201660156250e+02 5.804152832031250000e+02
3.183155822753906250e+02 3.135000000000000000e+02 3.135000000000000000e+02 3.135000000000000000e+02 3.135000000000000000e+02 3.143879699707031250e+02 3.135000000000000000e+02 3.135000000000000000e+02 3.140614929199218750e+02 3.856824035644531250e+02 3.573268432617187500e+02 3.258481750488281250e+02 3.578043823242187500e+02 3.873227539062500000e+02 4.379550170898437500e+02 4.907803039550781250e+02 5.132987060546875000e+02 4.987943115234375000e+02 4.136385803222656250e+02 4.136793518066406250e+02 4.441705322265625000e+02 4.812308654785156250e+02 5.094129638671875000e+02 4.400791320800781250e+02 4.603426513671875000e+02 4.967020568847656250e+02 5.357972412109375000e+02 5.543685302734375000e+02 5.443437500000000000e+02 5.585389404296875000e+02 5.659357910156250000e+02 5.556329345703125000e+02 5.319867553710937500e+02 5.005686950683593750e+02 4.757478027343750000e+02 4.095956115722656250e+02 4.314096679687500000e+02 3.918247070312500000e+02 4.026216430664062500e+02 3.914277954101562500e+02 4.000536499023437500e+02 4.144625854492187500e+02 4.669153747558593750e+02 4.878056945800781250e+02 5.537978515625000000e+02 5.770540771484375000e+02 5.203566894531250000e+02 5.107375488281250000e+02 5.081521301269531250e+02 5.015430297851562500e+02 5.037878417968750000e+02 4.831963500976562500e+02 4.694624328613281250e+02 4.173367309570312500e+02 4.206555480957031250e+02 4.514604187011718750e+02 5.284522705078125000e+02
3.240621948242187500e+02 3.135000000000000000e+02 3.254573669433593750e+02 3.331204833984375000e+02 3.139583435058593750e+02 3.237664794921875000e+02 3.618377380371093750e+02 3.578507690429687500e+02 3.649917907714843750e+02 4.074774475097656250e+02 4.173950500488281250e+02 3.731661682128906250e+02 4.014980163574218750e+02 4.183859863281250000e+02 3.936218261718750000e+02 4.300996704101562500e+02 4.580720214843750000e+02 4.828903808593750000e+02 4.686587219238281250e+02 4.706891174316406250e+02 4.028786010742187500e+02 4.300155639648437500e+02 4.970482788085937500e+02 5.137858276367187500e+02 5.156895141601562500e+02 4.867925415039062500e+02 5.116076049804687500e+02 5.310323486328125000e+02 5.623120727539062500e+02 5.745718994140625000e+02 5.646503906250000000e+02 5.509989624023437500e+02 4.981994018554687500e+02 4.575587768554687500e+02 4.193035888671875000e+02 3.960202026367187500e+02 3.999592590332031250e+02 3.755639953613281250e+02 3.848102722167968750e+02 4.232587280273437500e+02 5.019029541015625000e+02 5.097588806152343750e+02 5.304884643554687500e+02 5.283525390625000000e+02 5.718227539062500000e+02 5.890998535156250000e+02 5.967055664062500000e+02 5.923842773437500000e+02 5.768188476562500000e+02 5.787248535156250000e+02 5.700589599609375000e+02 5.282473144531250000e+02 5.100498962402343750e+02 4.524476928710937500e+02 4.269447937011718750e+02 4.224887084960937500e+02 4.921482849121093750e+02
3.316653747558593750e+02 3.200648498535156250e+02 3.417384338378906250e+02 3.709232177734375000e+02 3.302817382812500000e+02 3.161053466796875000e+02 3.797304077148437500e+02 4.279399414062500000e+02 4.328481140136718750e+02 4.682110900878906250e+02 4.282248535156250000e+02 3.847010498046875000e+02 3.914204406738281250e+02 4.269995727539062500e+02 4.221966247558593750e+02 4.837679748535156250e+02 5.001337890625000000e+02 5.092432250976562500e+02 5.084152221679687500e+02 4.739307250976562500e+02 4.703280334472656250e+02 4.397691650390625000e+02 4.679671630859375000e+02 5.371934204101562500e+02 5.429658813476562500e+02 5.293778076171875000e+02 5.505103759765625000e+02 5.566917724609375000e+02 5.610354003906250000e+02 5.614139404296875000e+02 5.730869140625000000e+02 5.636063232421875000e+02 5.541908569335937500e+02 5.096054077148437500e+02 4.623341674804687500e+02 3.795762329101562500e+02 3.639312133789062500e+02 3.899326782226562500e+02 4.556461181640625000e+02 4.796968383789062500e+02 4.921597900390625000e+02 5.649862670898437500e+02 5.685465087890625000e+02 5.673253173828125000e+02 5.910861816406250000e+02 6.434860839843750000e+02 6.564342041015625000e+02 6.577565307617187500e+02 6.517694702148437500e+02 6.466628417968750000e+02 6.124851684570312500e+02 5.819042968750000000e+02 5.632667846679687500e+02 4.971264648437500000e+02 4.627453918457031250e+02 4.366205139160156250e+02 4.471948242187500000e+02
